ncols         90
nrows         120
xllcorner     -88.2847222193
yllcorner     41.5348333329
cellsize      0.0062000000000001
NODATA_value  -9999
231.5137 231.4859 230.7142 231.7674 243.3766 241.9528 242.1931 242.8315 236.896 228.054 228.054 228.054 228.054 228.054 228.054 244.4155 244.787 233.7468 238.5012 243.4637 239.0079 240.2374 244.1097 239.5686 239.1335 239.2183 251.8975 252.032 247.5792 249.5415 252.5761 250.7133 243.6037 243.6623 243.4942 243.8102 247.199 255.829 259.7637 253.2817 248.9823 242.3947 241.5912 231.1504 229.9649 231.3026 231.35 227.5838 222.419 221.7293 219.4432 213.6821 218.8893 214.3256 201.1523 198.624 199.822 207.6601 216.3508 213.151 210.3681 207.0643 204.7181 204.9436 208.4443 208.5627 206.3502 205.7868 206.9183 218.064 209.9239 207.164 202.3014 177.5113 175.198 175.198 175.198 175.198 175.198 175.198 175.198 175.198 175.198 175.198 175.198 175.2569 175.6383 175.904 175.904 175.904
236.073 237.7714 237.8605 253.9691 251.0222 237.7943 237.7943 237.6743 234.2992 228.1157 228.054 228.054 228.054 228.054 230.9001 232.1429 237.7478 239.3389 240.0213 240.1121 237.6449 240.2847 240.5142 241.0431 237.5557 237.5557 241.8061 241.8061 254.0262 254.3649 249.9513 251.679 248.0879 244.2443 246.4506 257.388 250.4647 256.9625 261.7933 251.5236 252.5092 244.6229 236.4874 231.9009 229.9649 231.6175 228.3305 224.1156 220.7411 219.4915 214.1009 214.4788 218.4994 215.9819 203.4544 198.0387 198.9069 207.057 216.1031 213.4034 213.8338 210.1971 204.7181 204.7181 204.7623 209.5646 207.4436 205.7868 205.7868 211.0957 212.9956 208.1508 206.7306 198.8592 175.198 175.198 175.198 175.198 175.198 175.198 175.198 175.198 175.198 175.198 175.198 175.2569 175.6383 175.904 175.904 175.904
263.5623 258.6245 259.3207 261.8763 251.6406 252.8055 243.0745 256.1651 234.1965 228.054 228.054 228.054 232.7787 228.054 228.054 228.054 228.054 228.054 228.1196 241.0187 235.438 240.5956 237.5557 237.5557 237.5557 247.3398 250.4346 241.8696 253.6889 257.2369 253.3185 256.4023 259.0339 248.5074 246.2885 251.1223 257.826 250.2238 256.1944 249.2709 247.004 243.089 231.9178 230.2799 231.9437 221.7758 220.9447 219.5402 219.2193 218.4322 213.205 213.0544 216.5104 211.9366 204.3233 198.0387 200.4444 201.9888 208.4033 217.1219 213.2804 209.2738 205.766 204.7181 205.6879 212.8103 208.6895 205.7868 205.7868 210.6687 213.4902 212.8108 205.6294 192.0399 175.198 175.198 175.198 175.198 175.198 175.198 175.198 175.198 175.198 175.198 175.198 175.2569 175.6384 175.904 175.904 175.904
278.5815 271.4861 262.601 259.875 261.0578 262.9119 262.1484 249.0604 229.6867 228.054 232.257 228.054 228.054 228.054 228.054 228.054 232.6239 238.399 228.054 231.8839 235.3625 237.5557 237.7447 245.3474 243.7389 240.0931 239.9435 252.9492 258.1092 273.9043 261.0903 254.891 251.8696 257.104 256.1039 251.9887 247.1278 250.9235 248.0426 250.4644 238.9892 239.6904 235.2966 231.5004 231.529 228.5941 224.3977 224.7306 221.9991 220.637 214.8267 211.705 214.6019 211.2445 204.4126 198.0387 198.0387 202.0874 205.0311 213.7936 214.2852 207.5744 205.8537 204.7181 204.7181 209.5837 209.8776 205.7868 205.7868 205.7868 214.9866 213.2079 207.4743 204.6407 190.2827 175.198 175.198 175.198 175.198 175.198 175.198 175.198 175.198 175.198 175.198 175.257 175.6392 175.904 175.904 175.904
266.6627 261.7282 261.3063 258.9823 258.9192 259.6121 237.5504 229.6867 237.3287 228.054 228.054 228.054 228.054 228.054 228.054 228.054 228.054 233.1301 228.054 228.054 235.4789 236.4566 240.9395 242.6306 243.4777 239.9435 247.688 254.21 259.2892 266.7773 271.0901 270.0065 266.3249 260.3201 257.9453 251.7212 250.521 243.011 243.011 239.5371 238.582 238.4602 235.6754 231.3188 228.1366 228.1366 228.0398 221.3779 221.5263 221.3467 214.7471 209.89 211.2532 212.0647 207.2757 198.0387 198.4913 200.4354 202.4262 211.0794 214.4655 210.3779 208.1227 205.6863 204.7181 204.7181 211.3936 206.1577 205.7868 205.7868 213.2567 216.1979 206.2987 199.5553 198.5055 175.198 175.1984 175.198 175.198 175.198 175.198 175.198 175.198 175.198 175.198 175.2374 175.3967 175.6095 175.6087 175.6088
274.9938 262.6571 260.5019 253.0532 256.1143 250.5246 258.025 246.3436 237.2287 228.2808 228.054 228.054 228.054 228.054 228.054 228.054 228.054 233.487 228.5762 228.1649 238.4165 237.9621 235.8559 234.3271 241.2312 239.9435 255.2402 247.688 252.9091 265.0824 269.9612 270.8566 270.3261 266.1001 262.4397 260.0178 255.4349 244.5834 245.8943 241.6526 237.4594 237.4707 237.0232 234.1806 234.6269 231.0129 224.0286 221.1724 219.7637 222.188 218.4842 209.89 209.9513 209.4375 207.0406 198.0387 198.1149 202.4578 202.804 202.4262 205.8485 213.7629 207.6161 204.8179 205.3215 204.7181 211.2486 208.5118 205.7868 205.7868 206.1053 217.6609 209.853 207.0119 204.3159 175.4073 175.213 175.2119 175.2119 175.2119 175.2119 175.2119 175.2119 175.2119 175.2119 175.2123 175.2276 175.238 175.2381 175.2381
271.0411 269.1277 271.0686 250.5246 250.5246 252.6435 245.773 245.773 240.0709 240.6487 231.0716 228.054 228.054 228.054 228.054 228.054 234.4438 240.2776 228.1649 235.7056 229.8908 234.3271 234.3271 234.3271 234.3271 239.5064 251.0585 260.3181 262.0291 261.929 264.6904 262.1704 264.8661 269.1453 271.2729 264.5382 260.1773 254.204 248.3699 242.117 235.1314 233.9417 234.487 234.4446 231.1755 231.2744 226.362 222.3973 220.8906 219.6658 216.7056 212.1297 207.2225 207.2225 207.3492 199.0562 198.0387 206.5027 206.2006 204.6264 204.117 208.694 210.4087 205.9643 205.1649 204.0783 204.0783 205.5535 208.3245 205.7868 205.7868 215.4769 213.5881 207.5049 206.5364 198.4721 175.213 175.213 175.213 175.213 175.213 175.213 175.213 175.213 175.213 175.2125 175.2098 175.208 175.208 175.208
270.6828 270.1823 264.7925 250.5246 251.6593 250.6049 258.5326 257.2218 262.6097 269.2452 253.2009 243.469 228.054 228.054 228.054 228.054 228.054 232.308 232.6321 228.3694 239.257 237.1258 238.7309 237.1068 247.6178 255.0114 258.0446 262.5024 259.3111 265.1956 262.1704 265.5352 268.572 277.062 273.8345 264.7679 251.132 244.4178 241.0632 237.2833 231.8405 230.7558 234.7794 229.3354 220.5128 225.1491 221.8795 223.4521 226.5856 222.4439 214.897 209.8054 207.6198 208.6503 204.0055 201.2742 198.0387 205.3898 201.9795 211.6961 207.8729 205.6197 213.2696 212.2741 208.7905 204.1263 204.1894 203.1825 208.9584 206.9852 205.8739 207.1255 214.7133 207.8201 204.0948 199.6505 175.213 175.213 175.213 175.213 175.213 175.213 175.213 175.213 175.213 175.2125 175.2099 175.208 175.208 175.208
264.127 256.9897 256.9897 252.256 255.2181 258.5112 262.0656 262.1347 262.047 263.4826 263.8032 254.9167 241.7192 237.5909 255.184 233.4806 228.054 228.054 228.054 228.054 228.054 233.7805 239.5399 246.6984 254.4823 253.3681 249.3411 256.6929 265.66 259.3111 259.9358 263.8887 266.9653 265.5611 265.5611 252.2293 257.7352 248.7062 239.8484 237.6355 234.8661 226.9615 226.9615 220.9034 219.7638 219.5254 217.0825 222.1703 228.5073 221.7561 218.4265 209.9994 207.6198 212.6731 209.122 201.5297 198.2021 198.0387 199.6095 206.1697 208.2398 205.9767 205.6217 206.6529 212.3851 206.505 205.5146 202.9836 206.3326 209.4114 205.8006 201.5426 212.3736 213.6595 205.715 201.2047 181.3579 175.213 175.213 175.213 175.213 175.213 175.213 175.213 175.213 175.2125 175.2099 175.208 175.208 175.208
278.3354 274.6984 268.3894 262.0498 261.2615 253.2207 261.0058 263.5721 259.1385 262.9152 266.6074 268.1878 259.0384 245.586 237.3439 228.054 228.054 228.054 229.6679 228.054 228.054 249.2227 242.4578 247.3567 252.699 243.4421 258.662 261.3666 259.4194 259.3719 260.3539 259.9358 269.6071 269.2163 266.8473 262.5826 257.52 246.3819 241.2719 238.3754 233.4346 226.9615 227.6825 229.1135 224.8036 225.6078 213.1653 213.7254 225.9126 222.3884 211.3313 208.7755 211.3183 215.4819 210.2696 204.3184 197.3815 197.8899 198.921 209.456 208.8518 207.3162 205.7306 205.8183 212.3488 207.1649 207.4023 202.9836 203.2335 206.3899 210.0232 201.5426 204.6381 215.9111 213.0842 204.6906 196.6414 175.213 175.213 175.213 175.213 175.213 175.213 175.213 175.213 175.2125 175.2099 175.208 175.208 175.208
271.9727 267.8356 266.9418 262.0597 259.5076 253.4308 253.2207 251.6568 255.2107 260.8509 255.1238 262.7341 251.8315 245.0731 228.45 228.054 236.6271 228.7713 228.1086 231.6737 241.5056 245.2074 241.306 248.9839 242.0827 249.1873 253.3865 253.5944 253.5944 254.1787 272.0895 260.9449 265.1339 265.0258 266.0886 259.4153 249.9643 242.529 240.1303 237.1962 231.4532 231.2859 228.483 227.9683 225.1781 225.3591 222.2981 212.6531 219.3358 223.7273 210.2574 207.0955 210.7023 213.9475 210.0503 201.3681 200.2549 196.9301 207.7699 209.7938 210.2911 206.8865 204.117 205.7114 211.987 210.5963 207.1254 204.4796 202.9836 202.9836 209.7868 203.3688 195.9674 209.3158 215.1577 206.9187 200.0437 198.1524 175.213 175.213 175.213 175.213 175.213 175.213 175.213 175.2125 175.2099 175.208 175.208 175.208
269.4944 270.7346 265.197 256.7043 261.7963 256.0447 249.1891 244.5773 241.9968 233.986 233.986 235.8243 231.7756 228.2274 228.054 228.6986 230.9541 228.1086 234.4908 244.4188 231.3226 231.3226 233.4269 241.8381 248.5046 241.8423 250.1899 254.2144 253.8267 261.6346 264.2289 260.8035 259.3832 271.4647 264.7491 259.1989 254.9517 243.4211 240.1335 234.4422 234.3553 232.3384 227.9683 231.3648 228.7259 225.4705 227.5038 219.9247 210.8672 208.1192 207.5948 206.1429 206.1429 206.1429 206.1429 202.7715 203.1649 196.9301 197.9209 200.0435 211.8819 208.9706 205.827 204.117 213.3322 210.1235 205.3058 205.0458 202.9836 202.9836 205.8717 205.0297 197.836 195.9674 199.8137 205.6694 207.0575 201.2795 175.213 175.213 175.213 175.213 175.213 175.213 175.213 175.2125 175.2099 175.208 175.208 175.208
268.0566 265.197 270.6774 264.7759 248.4036 264.0933 244.004 238.79 233.986 233.986 233.986 248.3169 256.8619 231.01 236.5285 236.7841 241.1975 240.6973 230.9962 230.9962 236.0104 240.54 231.6698 237.0612 240.0746 240.2863 258.0834 262.1011 257.229 262.0027 259.3289 259.2231 269.5157 268.1896 265.0686 259.0864 250.7934 244.1111 234.3603 239.2776 234.629 231.6293 229.3617 228.6674 226.6418 224.2385 225.1101 218.9699 212.554 213.7289 211.725 211.6849 210.9564 210.6643 207.5658 204.5355 197.6689 198.4866 196.9301 196.9301 200.8284 209.1893 204.3118 203.9848 208.142 209.6814 210.7554 205.6345 202.9836 202.9836 205.6262 204.6062 199.5372 194.1514 195.913 204.2493 209.3277 203.0016 201.3745 175.213 175.213 175.213 175.213 175.213 175.213 175.2125 175.2099 175.208 175.208 175.208
271.0438 276.5477 267.2201 247.9199 231.7376 235.4033 233.986 233.986 233.986 233.986 241.6934 233.986 231.01 236.3895 237.3246 240.9052 241.5558 239.8412 236.2325 231.9016 231.037 235.6489 236.6748 250.7665 241.0403 252.0547 255.5944 253.3398 258.9045 257.229 259.2231 268.2132 267.8917 262.33 259.3539 254.8083 247.2719 240.929 240.1363 231.7152 230.638 232.7172 235.0879 234.8665 224.3099 215.5649 218.1986 214.5511 210.4324 215.3273 211.4088 209.6205 209.9821 209.2299 207.6161 203.1212 201.6531 196.9301 196.9301 198.9586 199.4428 207.4759 205.615 203.9848 204.1316 208.0768 213.3456 207.9523 202.9836 202.9836 203.8791 201.4776 198.0762 194.9131 194.1514 196.7516 209.9458 202.9659 203.6193 187.7856 175.213 175.213 175.213 175.213 175.213 175.2125 175.2099 175.208 175.208 175.208
253.4745 249.848 246.1644 231.7376 231.7376 242.1557 242.6126 239.9505 233.986 235.2968 236.0352 248.3102 233.637 238.4397 236.3895 238.0437 238.0185 238.0374 231.9016 236.0432 233.1126 247.2644 242.1321 255.137 256.6246 256.5072 259.2527 253.2753 256.0691 258.3033 265.5598 270.0719 267.462 261.3643 256.8724 249.3065 247.3209 243.6522 240.8703 232.2179 231.685 230.5056 228.223 228.7714 228.3696 228.0034 214.2603 214.2603 211.3765 210.4324 211.7424 209.215 210.1025 210.2645 206.9756 203.8937 201.6382 197.4942 196.9301 196.9301 199.6134 206.1576 206.9671 205.613 203.9848 207.2305 208.0943 208.3757 204.4188 202.9836 202.9836 203.9031 198.7966 195.4474 193.9861 195.0137 203.2718 209.9902 207.5603 202.93 175.213 175.213 175.213 175.213 175.213 175.2125 175.2099 175.208 175.208 175.208
271.1968 267.9991 238.6348 231.7376 254.3949 259.7807 260.8687 255.2689 261.9668 234.9013 234.9013 236.4274 242.1889 249.9095 251.1951 243.0486 239.351 235.5277 234.8003 242.1423 243.9494 249.423 250.038 262.9044 269.7126 257.6591 261.3838 261.3696 253.2753 255.5815 262.183 267.7127 265.2898 259.1067 253.528 249.6034 244.4408 236.8055 237.4611 228.9678 229.2157 230.653 231.5387 227.6703 231.1532 223.9559 217.3588 215.1967 215.2371 212.7359 209.7287 207.4427 210.2134 208.717 207.7962 202.9127 200.66 196.9301 197.2129 196.9301 198.017 208.4513 208.754 205.3843 202.3026 202.0003 204.9474 208.8867 207.868 202.9836 202.9836 204.5445 202.6716 198.6852 195.2874 193.9159 196.6761 203.0018 210.9254 199.6286 197.5307 175.213 175.213 175.213 175.213 175.2125 175.2098 175.208 175.208 175.208
266.0863 231.7376 231.7376 267.6918 265.1567 261.4266 262.0266 268.4645 266.2073 266.0549 263.3622 247.6206 236.4274 251.7011 245.9801 243.0808 240.7512 235.1118 243.4747 243.9957 243.8899 253.6806 259.0298 256.3529 251.0708 250.0173 250.0173 252.2643 250.3181 257.099 268.5498 267.0985 268.2144 257.5745 258.6375 244.3463 241.7061 240.7416 236.8055 230.8457 228.9549 227.6703 227.6703 233.6779 224.927 222.8567 220.7355 221.0102 217.6588 217.0358 208.8532 207.3384 207.3384 208.485 206.8281 201.5961 197.793 202.9408 196.9301 196.9301 199.7037 201.0698 207.0867 207.217 205.9183 204.1801 201.1967 203.565 209.2728 209.8761 208.2609 203.515 199.1233 202.8805 196.6838 194.5877 193.9159 198.0471 213.7338 208.365 206.2611 201.7723 175.213 175.213 175.213 175.2125 175.2098 175.208 175.208 175.208
220.1301 258.8235 264.3875 264.8482 269.3446 262.8627 262.034 262.037 262.5082 258.8227 257.9264 245.5361 240.2517 242.7794 237.7302 237.6361 237.4549 241.2994 240.7384 240.17 242.7389 248.0654 249.7686 251.9585 250.0173 252.2307 255.8399 250.0173 253.3569 259.8735 257.099 262.1992 266.0472 254.7565 254.0403 252.9614 239.1317 235.6926 235.044 227.6703 227.6703 227.6703 234.6885 234.6533 231.4856 227.4478 223.4079 219.271 215.52 217.4005 210.1593 207.3384 208.8638 206.9979 205.1757 201.9819 197.5294 196.9301 196.9301 196.9301 196.9834 197.4013 203.6903 205.5042 206.9518 205.5997 203.3942 201.1967 200.8588 203.9769 207.6942 207.3204 203.1999 199.2781 201.0446 197.3728 192.8219 194.8107 198.5468 208.6333 203.1774 186.8508 200.1048 175.213 175.213 175.2125 175.2099 175.208 175.208 175.208
252.6279 264.6089 261.7533 264.0021 268.9431 264.4297 264.9839 263.2946 263.9216 256.6494 258.702 241.9875 239.8148 240.535 238.1832 240.8981 240.0395 240.17 240.17 240.6999 240.17 246.3397 252.9945 252.8713 250.0173 250.1805 250.0173 250.1432 250.0173 257.7968 257.229 260.5811 258.7176 258.7941 249.9194 246.7811 239.9574 239.5307 237.4431 231.0635 231.9951 227.6703 228.6246 229.578 225.3938 223.2232 222.8967 218.1394 213.4345 212.1563 209.1971 208.37 209.0986 208.3768 206.5651 202.1483 196.9301 196.9301 196.9301 196.9301 196.9301 197.3638 197.2273 198.0202 202.6899 206.2404 206.0612 203.1984 200.8588 201.2944 208.6414 211.463 205.3911 202.3112 200.8776 198.4795 195.7958 192.8219 195.1678 201.5126 206.4418 204.8624 195.3795 180.2476 175.213 175.2125 175.2099 175.208 175.208 175.208
250.9096 255.8288 262.7547 261.7533 261.7533 263.2611 266.6813 265.7978 267.9129 259.4163 255.4815 240.4326 244.9541 239.8148 246.3446 240.3165 240.0395 247.3679 240.17 250.7179 249.9346 240.5979 244.0053 245.9588 248.9171 251.9963 255.3773 250.1782 250.0173 257.0821 264.4436 258.1715 255.929 255.8211 255.9521 248.7675 245.8072 241.2776 239.6929 233.8463 230.3122 228.9227 232.4892 228.8061 228.8537 222.3275 217.2614 213.4345 213.6326 208.37 208.37 208.4494 209.1496 208.963 205.416 200.846 196.9301 196.9301 196.9301 196.9301 196.9301 197.2273 198.017 199.5581 204.4467 207.5581 207.2551 205.8993 202.4178 199.2095 205.2282 207.9884 209.345 201.5437 198.4795 202.0159 198.0435 196.8128 192.356 194.9144 196.8706 208.2731 204.3241 190.2808 175.213 175.2137 175.2099 175.208 175.208 175.208
239.3528 255.1767 264.4592 265.5171 265.4503 268.5862 252.5952 248.0586 245.2696 239.9031 239.8148 239.8148 239.8148 240.6793 255.0157 258.3319 241.9382 255.5315 243.3989 249.6275 249.9585 243.0438 249.6314 256.2798 255.6935 257.7142 258.4247 258.6257 260.8042 265.7808 265.7515 268.5603 262.7908 258.6698 250.0296 249.6709 240.6327 228.5201 228.5201 229.8418 228.5201 231.5918 229.6322 227.7765 225.7667 222.457 214.9632 216.4595 218.4483 209.4024 208.37 208.374 204.022 207.6518 205.385 202.1746 199.7065 196.9301 196.9301 196.9301 196.9301 197.1163 197.9757 200.5684 206.4656 208.8569 211.4313 206.5189 205.2229 202.9764 199.2095 201.4376 202.8113 204.9965 201.4348 201.0388 197.9474 196.6253 193.5403 192.356 193.408 198.3216 207.4467 192.2802 198.5382 175.2803 175.21 175.208 175.208 175.208
223.5868 248.416 246.2672 259.4815 266.0793 250.59 245.2696 245.2696 250.9812 244.488 239.8148 239.8148 239.8148 253.5059 261.7653 259.6826 244.6423 256.021 248.9445 254.6447 260.4743 244.9706 259.2954 266.612 270.3065 266.9091 257.7629 257.7629 262.3745 273.4946 266.8851 259.4218 261.8178 254.1099 239.229 244.5805 234.0916 228.5201 228.5691 228.5201 228.5201 229.3322 222.4127 222.4127 222.886 217.5247 230.5937 221.8819 219.6911 210.6627 209.8622 211.3624 208.5509 200.966 200.966 202.721 197.9476 197.3988 196.9301 196.9301 197.391 197.4293 197.5625 198.6428 203.1115 206.8304 210.1413 208.7205 207.5421 203.9708 202.2328 197.3504 198.1977 205.9972 200.0372 198.4703 199.6815 200.0208 201.1608 191.606 192.166 196.3591 209.5184 203.7535 195.306 187.2022 175.2735 175.208 175.208 175.208
235.6601 233.3299 252.3956 270.329 277.878 276.2015 270.1478 261.8056 269.0746 265.153 256.1835 254.6479 239.8148 239.8148 253.7497 241.8962 241.5074 246.8007 259.4202 262.0153 260.0029 249.2372 256.9123 266.944 261.037 259.9007 257.8907 261.9666 262.7508 261.7311 261.3712 262.1088 259.4218 245.4186 239.3058 234.5982 235.3193 231.9754 231.2581 228.5201 229.4985 228.5201 222.5529 223.4887 222.4127 222.8219 227.0159 218.6617 214.5706 214.9107 213.4083 209.2298 205.7583 205.9776 204.1847 199.296 198.0218 198.0735 197.0954 196.9301 198.439 196.087 197.3962 199.2946 199.5472 203.8822 210.4692 210.2018 207.1929 206.2339 201.9386 200.051 197.3504 205.3596 205.4577 200.3063 198.4703 201.4767 197.8469 192.5075 191.606 192.965 196.0432 208.3413 203.2836 201.1033 175.5947 175.208 175.208 175.208
229.7803 229.0234 262.0856 261.802 263.8937 274.8056 275.4836 276.1446 272.8918 265.3549 257.821 254.8547 241.7278 239.8148 239.8148 239.8148 254.6461 259.4419 259.679 259.0015 254.8439 254.1662 251.737 266.2759 264.9643 268.0158 259.1541 261.9019 269.4704 265.129 268.0089 261.4681 254.3675 249.829 243.1111 237.2328 235.1957 231.6686 230.5435 229.7968 231.6301 228.2754 226.2709 225.2606 221.647 220.7428 224.8673 217.927 216.2535 212.0337 216.7144 213.1614 208.3605 205.123 202.4761 200.2911 197.7716 196.3421 195.6751 195.6751 196.087 196.517 196.4861 197.7975 197.117 202.3216 206.6299 209.9756 207.1799 206.105 204.1643 200.9047 200.166 197.3504 203.5609 206.8537 201.9183 200.301 199.6325 195.7418 191.8451 191.606 191.9778 194.6857 205.1318 203.3211 193.8105 175.208 175.208 175.208
222.2725 250.5562 261.5947 265.2161 270.0458 276.7485 286.156 286.5349 284.4686 267.0759 252.0812 243.0726 239.8148 239.8148 244.025 250.3666 259.4598 263.0124 274.0422 268.6852 257.2524 262.8081 259.3963 265.0685 275.399 264.3273 261.5478 261.5484 261.9155 267.5851 264.8437 256.1244 249.2283 248.948 241.9897 234.3822 229.9708 229.0617 229.1409 228.5203 230.1455 227.6089 225.5514 220.3362 219.4151 221.8748 221.9364 218.013 215.978 209.8161 210.1664 210.4801 206.3519 204.1337 202.6584 202.0734 197.91 197.4709 196.5518 196.3799 195.6751 195.2039 195.04 195.8214 197.9307 200.9993 203.364 210.4276 208.661 205.6885 203.9446 201.2536 198.314 196.4225 194.877 197.3425 205.7166 205.6134 198.0298 197.1152 192.1425 193.6162 190.3248 193.3421 201.3106 203.7764 203.0439 195.6508 175.4051 175.2132
238.5764 238.8795 253.4675 263.2276 272.9086 280.0034 283.2401 276.5408 267.8475 243.8461 240.8545 240.6761 239.8148 244.0998 248.4531 256.497 272.8141 272.7571 273.7209 265.0993 261.8569 260.5899 265.8075 261.9358 262.321 262.1241 265.2498 261.7271 260.4869 258.2072 255.2373 252.8036 246.5411 241.3053 237.9526 236.1396 229.9662 228.6155 228.5203 231.247 230.1486 226.086 224.0093 220.1104 218.92 221.8356 219.9708 215.0633 214.8938 210.7338 207.3123 208.3192 206.0047 204.0584 201.7042 201.7042 200.7483 198.382 198.0031 197.9463 196.1256 195.04 195.0913 195.04 196.0087 201.3458 206.7755 208.8191 208.7023 205.7403 202.756 199.8825 199.1416 196.6291 194.9012 194.877 204.07 205.4217 202.8413 198.3909 195.6015 192.3764 190.6676 190.3248 191.9658 198.1791 203.6125 200.1789 175.8904 175.2879
227.503 233.973 259.121 266.363 272.2143 269.1208 270.9896 267.1138 245.6695 241.2497 249.4158 242.2935 252.9653 258.717 263.2835 270.6031 271.4429 274.2922 271.0224 268.7315 264.63 264.3813 272.6277 260.6509 261.3812 261.5143 265.8138 268.9973 259.6652 258.8843 252.5986 244.0798 237.7983 237.6355 231.6561 239.0746 233.6154 228.6972 228.52 231.2366 227.4856 225.793 221.6932 218.92 220.1766 220.0226 220.1841 213.7991 212.1047 212.1952 208.8481 206.0047 206.014 205.4807 201.8738 204.538 201.578 198.6099 198.2258 198.018 197.3627 195.724 195.04 195.04 195.4299 202.8942 202.734 207.5412 207.237 205.6553 203.9441 201.2565 198.7504 194.9259 194.9204 208.3611 194.8346 199.2849 201.2251 200.0346 193.4192 194.0309 190.2263 191.4561 190.2263 191.6672 198.2008 202.4459 201.3278 175.213
225.8691 227.8721 247.2734 255.3592 262.6448 262.8359 264.8665 255.6872 244.6632 243.0964 260.8935 244.0816 243.6521 261.7731 257.2223 262.2386 264.6536 268.1589 268.9935 265.112 264.6953 264.3813 264.9369 259.9858 262.548 265.963 267.1734 263.9116 254.3861 260.5666 252.5761 243.5882 235.7853 234.3459 233.9431 231.6561 230.6165 226.4049 224.795 226.1048 223.3869 222.0165 219.939 218.4143 222.1452 222.6431 220.4457 218.9725 217.2112 211.8721 207.2699 208.8721 207.708 205.677 205.0593 199.9329 202.2685 200.2639 201.0656 197.7073 196.818 196.7 195.1016 199.0225 195.04 195.1845 198.8921 203.1635 208.73 207.0659 204.8669 200.2107 197.9548 196.7869 197.5135 211.9434 192.0274 193.799 203.8825 198.5741 193.1569 191.0101 191.0214 190.2263 190.2263 190.2738 191.7291 199.4858 199.2834 191.6658
218.6005 222.1154 247.2464 256.3949 259.3475 255.6754 255.6754 264.7071 261.7251 265.063 256.8632 246.7207 245.7032 246.744 252.4403 261.9171 264.6258 265.125 265.125 266.0523 265.125 265.9327 265.0212 259.9858 259.9858 266.0008 263.8436 260.6361 250.608 250.608 249.4149 252.66 246.9661 244.6611 240.0113 241.6632 232.5438 226.2768 223.3869 223.3869 224.2049 222.5947 220.0043 220.5491 218.4143 222.3696 222.8892 218.5394 214.937 211.7613 210.8923 208.7738 208.7086 207.2288 206.2822 204.7368 199.9329 199.9329 199.4712 196.818 197.718 196.9 195.2553 195.04 195.04 198.3578 199.6979 202.4032 208.7692 207.23 205.6301 202.63 201.1524 197.8276 193.89 192.043 192.0274 192.419 200.8368 197.711 193.2776 191.7238 190.4147 190.4667 190.2263 190.2263 190.2263 190.5355 194.7934 194.8734
231.6198 216.4709 242.0354 255.4613 255.6754 255.6754 258.6473 262.3177 261.8093 261.7271 263.5676 260.9726 245.7032 251.2985 255.2234 257.8391 259.4631 266.267 272.0497 268.7712 264.7867 262.025 259.9858 259.9858 262.0271 259.9858 262.1758 258.5142 256.3916 255.9791 255.2031 252.4378 240.702 238.0459 235.2029 234.6278 230.8369 226.8895 224.8747 227.5995 224.7732 222.1409 219.1633 218.1181 219.8643 218.9806 218.4909 221.1217 218.4522 209.3653 211.5823 209.797 208.7602 207.3014 204.9526 203.017 202.6414 200.856 199.6324 198.059 198.1304 196.9161 195.4736 195.04 195.2856 197.7715 198.6744 204.1395 207.6021 207.2546 204.4236 201.1174 198.1015 196.4013 194.0396 191.8154 191.8154 191.6073 196.6704 199.6268 196.8932 194.1469 190.6991 190.4051 190.2263 190.2263 190.3103 190.413 191.493 194.3012
221.3244 216.4709 238.2713 264.1559 263.1298 262.7713 260.6982 267.3559 266.3519 254.7037 252.8469 252.2528 249.1158 251.1384 253.1034 254.5494 259.35 271.9324 268.2501 260.0388 258.337 258.125 261.9637 263.0923 263.2608 261.5844 261.6545 253.0593 250.5369 254.1508 253.5489 249.9621 241.9586 236.6134 234.0473 234.351 225.9458 222.6336 228.5258 225.454 223.1203 222.9579 218.0654 219.0178 219.42 217.2646 217.2085 218.1097 216.8784 210.7899 206.9734 206.8161 205.5656 205.4849 206.7664 205.618 204.8199 200.8086 200.4599 196.9884 195.0107 196.4719 195.2547 195.04 195.0724 195.8755 199.1707 201.734 208.7119 207.0555 204.2541 202.596 198.1076 198.1221 194.9833 192.687 192.9909 191.6073 195.9841 198.8892 196.3646 193.4869 190.2263 190.2263 190.2264 190.3399 190.342 191.5639 190.9469 190.4404
216.4709 218.6441 247.5959 264.7199 260.3455 256.0661 258.4983 260.9607 256.3669 252.8137 252.9628 252.6604 252.9135 252.6541 256.0183 258.1205 256.1889 260.9728 259.025 262.055 258.125 259.0403 259.4254 256.0922 256.3282 256.6209 249.7108 246.7024 246.7024 250.0527 247.1226 245.8316 241.8736 238.145 230.6189 232.1457 225.4671 222.6336 225.8022 226.8109 222.9018 219.2526 216.5469 218.0547 217.9406 216.4778 215.2699 215.3464 213.3177 207.7626 206.6382 207.2888 205.4096 205.4096 205.4096 205.962 204.118 202.3799 201.0273 199.7579 198.3143 195.0107 195.0131 193.2434 193.731 195.0584 196.638 207.5113 210.1781 206.9568 205.73 202.9852 200.5074 197.8837 196.6626 193.9623 192.0789 191.6073 194.8249 198.9325 194.2793 191.1465 191.7634 190.3885 190.1425 190.4258 190.4198 190.413 191.0911 191.4987
239.5873 216.4709 222.8525 246.0381 250.5015 252.0061 254.5272 256.5229 249.9686 266.7514 262.803 257.3632 253.7448 253.6628 255.3314 255.3314 257.7057 262.0935 261.6171 259.025 256.0659 258.4518 255.0545 252.6235 250.0302 248.6947 252.92 250.3016 246.7024 247.6746 246.645 240.7336 238.0565 237.1314 233.7731 226.1463 225.8372 222.6336 227.8103 223.5957 224.7039 220.0024 216.4212 219.3492 217.0385 212.3313 210.6183 209.2746 208.5221 208.9707 207.3291 206.6382 205.4096 207.218 205.618 205.4096 204.078 204.4952 199.3343 196.1517 196.1517 196.2317 195.0107 193.2434 193.7892 193.8024 194.8818 199.6117 204.3293 206.793 207.23 205.2799 201.8525 201.4544 198.349 197.6909 194.7533 191.5815 193.4856 194.4049 197.5866 192.2106 190.8152 190.43 190.229 190.0723 190.3967 190.413 193.0226 191.923
236.0725 222.4393 222.2166 244.0848 244.0848 244.0848 244.0848 249.9686 258.1813 258.7172 259.9218 259.9326 252.3256 252.3256 258.3678 255.3314 259.4188 261.1047 261.0724 259.0099 256.0659 258.1053 249.0329 252.5605 248.6947 248.93 249.3962 244.0712 242.0736 240.0079 240.0079 236.5607 238.2384 230.7961 231.3412 224.6261 222.6336 222.6336 224.8922 221.638 219.9164 219.9164 216.2894 216.8412 214.9629 210.6183 214.4058 217.0593 213.0552 211.7665 208.7664 207.6451 205.4096 206.926 205.1104 203.4556 201.2918 200.0176 199.1669 199.6153 198.018 198.2979 195.382 193.2434 198.8096 195.5599 193.7196 196.5423 199.0974 203.8219 207.23 207.23 205.6445 202.6291 201.0029 198.002 195.5408 191.93 191.0202 198.6626 197.0971 195.1626 190.3757 190.43 189.9426 190.3951 190.1528 190.213 190.213 195.5673
223.6178 219.2877 227.8411 246.5745 246.878 248.8488 249.1565 249.8143 252.3037 259.0627 258.8389 260.6669 252.3256 254.1668 261.4679 262.5708 259.7101 259.0117 258.8466 259.4343 252.7992 253.1001 253.0277 242.7356 242.7356 242.7356 243.3808 243.2712 246.3519 240.0079 240.8621 237.2283 236.5607 232.0886 230.7961 225.105 223.0399 225.3877 222.6336 225.6573 221.9498 222.2893 212.9269 216.476 213.246 213.0551 216.2847 218.7097 215.191 212.586 211.5826 207.485 206.056 206.8176 205.618 204.118 202.9885 202.8077 200.6078 200.3943 199.418 199.1101 196.3985 194.9492 193.2434 193.271 195.4693 196.5175 196.7369 199.5816 201.8237 203.4428 204.2571 202.6331 200.5109 198.4536 194.8814 195.0947 192.0492 191.0202 198.0554 197.4852 190.6707 189.6187 190.3044 190.4705 192.0248 191.6972 191.213 193.9477
214.827 239.2831 246.2311 245.3004 246.126 246.5309 246.8478 253.7605 256.6284 261.9309 261.0832 254.4839 246.376 251.4273 257.6656 256.4258 256.0461 253.5392 247.6455 257.1932 254.3738 244.5112 248.7004 242.7356 250.1152 250.6743 243.5245 242.3452 242.3452 240.4578 240.2338 240.9949 232.0886 232.5884 224.7581 224.5087 226.8719 223.5492 225.3012 222.42 220.0111 220.0328 219.4977 212.9269 211.9342 211.3813 211.9006 218.84 215.8293 213.1922 210.2112 210.3988 206.1075 204.8944 204.3299 201.9208 203.015 201.118 201.0794 202.1684 198.5749 197.1093 195.6363 193.9417 193.2434 193.2434 195.53 193.9271 195.7139 197.7594 197.624 198.9682 200.0242 202.3386 201.0307 199.4942 198.5606 196.3543 195.0406 193.8525 191.0202 199.1477 189.4595 190.3904 190.6036 190.3044 190.8413 192.1098 193.6829 188.6526
238.6184 240.627 244.724 240.627 240.7711 240.5308 240.531 243.4742 250.561 262.8927 251.8986 243.2925 248.1802 239.5294 246.5629 244.8371 253.2662 248.3283 246.0089 253.401 252.6177 242.7356 242.7356 243.6648 251.5316 247.0146 246.9435 247.764 252.8143 251.016 248.0951 238.2326 238.163 239.4661 235.7262 233.4256 231.3464 223.5492 225.9552 226.9572 222.0928 219.2092 215.3367 212.5896 210.9725 211.9706 216.0799 218.3417 217.7126 213.4736 212.0223 209.5759 207.3067 203.5139 201.9208 203.2724 202.0155 199.3781 199.6908 198.781 197.7298 194.9282 194.9282 194.6958 193.2434 193.2434 193.3429 193.3909 194.4765 196.8012 198.3332 197.8456 201.1168 202.63 201.6224 200.7167 199.3945 197.8577 196.2077 195.0298 192.1945 189.1739 189.1739 190.3309 190.7321 190.3439 191.1814 193.3213 186.7309 185.3664
234.5246 231.0768 240.6641 240.5942 239.8119 242.4782 240.7057 243.0442 244.0879 259.257 245.9039 237.3619 237.3619 237.3619 237.3619 237.4469 244.5148 240.9392 242.7356 242.7356 242.7356 242.7356 250.3113 243.3044 243.9024 243.9024 243.9024 243.9024 249.7045 250.6755 250.5076 246.8893 234.5191 232.2149 229.9424 232.4126 225.0911 224.5419 227.0948 225.3549 221.1805 218.1439 210.9758 210.9725 210.9725 210.9725 217.0935 216.2574 216.3184 214.0996 212.1496 208.6982 207.6807 205.3695 202.7669 201.184 201.1113 200.7286 199.3781 197.7298 197.7839 196.9777 196.1365 195.018 193.2434 193.2434 193.2434 193.2434 193.4446 196.076 196.4049 197.6508 199.9196 202.5485 201.9203 199.852 198.0429 196.7438 195.9634 193.595 189.1739 189.2615 190.43 191.1596 191.03 191.9877 191.9278 186.7293 185.6647 184.7494
224.8969 232.0247 240.4042 233.0406 247.0546 243.8958 243.7749 245.8485 245.4335 258.0181 242.6406 237.3619 244.318 241.7055 249.3301 242.9772 240.9392 246.8283 243.8048 242.7356 242.7356 248.9703 249.825 248.9889 253.2537 256.1212 244.1115 243.9024 249.9683 253.012 246.0125 246.8336 242.733 236.5185 234.62 226.9228 225.4869 221.4153 225.5923 226.1168 221.1507 211.8699 210.9725 210.9725 211.2205 215.351 221.8475 217.8696 214.0614 214.3237 212.3562 211.3502 210.12 206.4635 202.6239 201.4548 199.6723 200.018 199.3013 197.8213 198.032 196.318 195.5506 195.2183 194.6231 193.2434 193.2434 193.2434 194.1632 194.3105 195.0501 196.53 199.5455 202.3438 200.5918 199.4193 198.2389 195.3443 193.7322 189.3695 189.1739 190.5076 191.0242 191.748 191.9291 190.4634 190.2498 185.813 185.813 184.3493
217.1697 229.7483 233.5939 222.8547 222.9637 234.6781 241.6478 231.1206 231.1206 237.3619 237.3619 244.1561 252.1106 253.4599 257.6161 260.3297 249.7211 252.6083 242.7356 243.2033 243.2446 253.4975 253.2839 255.7497 251.425 252.2748 248.8082 249.304 252.0511 254.3889 248.9739 245.9877 242.2458 239.4684 226.9228 227.4162 228.0907 221.4153 222.8007 221.4692 218.8829 216.0904 211.667 210.9725 210.9725 215.7984 220.9857 218.2326 215.9234 213.4297 212.4863 208.718 206.0758 205.6581 202.1651 200.618 203.1926 199.6723 199.518 198.145 197.9416 196.5722 196.5477 194.918 193.8188 193.2434 193.3634 193.2434 193.6724 194.9783 195.272 196.4117 199.3709 201.0944 199.7919 198.1729 196.696 195.6113 191.7518 189.1739 190.3761 191.2056 191.7287 192.5186 190.3806 190.0873 186.2276 185.6202 185.0084 184.1437
235.719 218.4735 239.7678 225.8611 222.8547 223.3111 226.3305 241.9072 243.7097 256.896 253.4615 237.3619 246.5249 246.3049 240.5196 239.8306 242.9668 249.7972 243.625 245.8706 249.1372 250.003 251.8458 252.3479 252.5856 255.3426 255.8711 255.0988 252.489 246.9447 250.486 243.6683 240.716 237.5216 230.6971 228.2939 225.581 220.7897 224.9124 219.4118 216.32 214.0892 210.9725 210.9725 210.9725 210.9725 216.6866 219.9898 217.2937 214.6759 211.6629 211.0123 207.3034 202.4055 204.2747 200.6971 201.5102 200.9546 199.9206 199.4817 198.0711 197.7559 198.152 195.954 194.0073 193.2434 193.9799 194.1291 193.5471 194.3466 196.7654 197.5002 199.2907 201.1947 200.8792 197.9323 197.1629 194.7505 189.3536 189.058 189.8334 190.43 190.9234 190.4446 189.6244 188.8877 186.2483 185.2162 184.613 183.7021
225.2776 215.5963 232.3221 225.707 222.8547 234.3677 235.1572 240.3246 234.5142 243.7402 254.6044 246.5461 239.3404 239.3404 239.3404 245.1873 241.6616 241.6616 245.2065 246.825 249.0029 246.825 249.0405 249.8616 249.4352 249.8177 254.4534 252.106 246.9447 247.3188 247.0062 249.6375 240.5051 238.8247 232.5828 232.9466 220.3266 219.2587 223.3039 219.0098 213.3851 210.9725 210.9725 210.9725 210.9725 210.9725 217.8273 217.818 214.8275 213.3776 210.9755 210.3628 207.0492 203.7549 200.6221 199.7113 200.6219 199.7113 200.2837 200.2612 199.308 198.2893 196.6733 196.4766 194.8101 193.667 193.1363 193.1363 193.1363 193.43 193.7934 196.0693 199.1529 202.9368 201.087 199.6426 195.5809 194.7733 189.7388 189.058 189.5187 190.33 190.4168 190.0639 189.0313 186.7282 185.3538 185.615 184.631 183.5114
215.5963 216.7722 221.3294 221.3294 221.3294 228.2896 229.7661 232.2173 243.5463 242.9852 247.3135 262.6898 248.2388 244.9023 246.0444 241.3888 243.7725 241.6616 242.786 245.4385 246.825 247.3975 249.3966 247.1424 245.756 249.3907 250.4933 245.6709 247.7725 248.5002 248.2592 247.4707 242.5326 240.9198 227.7944 226.987 219.2587 219.2587 219.2587 216.3869 213.32 213.4167 210.9725 213.4243 213.3208 210.9725 216.0245 214.8391 216.1685 215.0116 212.1434 207.3335 205.4268 203.3268 201.1604 201.567 199.7113 200.6723 199.7246 199.4762 198.8123 197.9405 195.8102 195.8102 196.4113 193.726 193.1363 193.1363 193.1363 193.1407 193.7422 196.3867 197.1374 201.83 200.6788 198.0242 195.5484 193.9529 189.058 190.3302 189.63 190.0155 190.334 189.56 188.8073 186.5405 185.8296 185.7155 184.8663 183.6012
216.286 221.9203 222.3293 228.8183 228.1553 229.3226 231.9538 237.9862 233.9508 240.2514 250.3367 244.8617 243.46 249.084 259.906 251.9219 245.196 244.696 244.1653 252.0773 249.5554 248.1868 243.425 243.7623 242.42 244.4102 244.4102 244.4102 244.4102 246.177 245.6595 246.6296 248.447 243.7957 234.3829 227.5686 219.6468 222.6238 223.9738 217.242 216.2929 214.7512 210.9725 213.213 213.2956 211.8669 209.3516 213.2016 211.5659 211.7306 211.3387 209.6667 207.0287 207.3466 204.9444 202.8097 201.0997 199.7113 198.3896 197.056 197.2157 197.7183 196.2313 196.5585 195.0467 195.0175 193.4202 193.1363 193.1363 195.2802 194.4335 195.2327 196.3681 201.2864 200.3155 198.9688 196.3962 192.0353 189.0734 189.058 189.2605 189.4687 189.577 189.408 188.557 186.7992 186.1672 185.7611 185.0964 184.2295
240.7283 232.9996 232.4095 230.8049 231.5212 234.0469 234.4485 234.5196 234.4027 238.2176 240.2969 240.3308 240.3308 249.4362 252.5614 246.0991 246.772 245.8616 243.8994 247.0048 252.4518 249.8665 247.1991 242.42 242.7535 246.2058 251.4663 245.7411 248.1009 246.9118 245.6595 246.5902 249.8869 243.4575 236.5212 228.9228 222.5051 222.3906 226.5962 222.9739 216.1919 216.1267 214.0729 212.8189 213.5215 211.3002 208.2718 211.5659 213.2156 212.412 208.7707 206.3488 205.896 205.3889 204.1729 204.0926 203.1903 201.2242 199.2743 198.8105 196.0092 196.0092 196.0092 194.934 195.0692 194.9019 193.6365 193.3118 193.1363 195.6233 194.5787 194.8926 195.9131 199.4673 201.1469 199.3179 197.3848 195.3372 190.1794 189.058 189.6546 187.9698 189.1441 189.2868 187.601 187.0587 185.9805 185.8548 185.8138 184.2363
225.3229 230.9499 228.1577 228.9211 230.4434 233.7961 234.5882 234.6645 234.3897 236.5605 238.5207 241.1017 240.3308 243.9068 250.9194 249.1665 246.7977 242.8272 244.288 246.1937 247.0378 252.7429 246.1301 241.7067 243.5527 244.9546 246.575 248.0112 247.0733 244.3649 246.0502 247.5954 241.3239 240.5889 231.8674 226.7324 219.5524 219.51 222.0227 220.8548 221.0994 217.9717 213.7574 210.4395 213.8584 212.803 208.2718 211.7891 217.8601 215.2574 212.7278 206.1274 205.4712 205.0225 204.5814 204.5818 201.659 202.9245 201.5866 199.2313 198.13 197.1241 198.0892 196.4773 194.934 194.1465 194.2446 194.5716 193.1363 194.14 193.3824 193.4299 195.3027 198.2238 201.169 199.8614 198.0257 195.9996 190.4345 189.084 189.058 185.5578 185.5578 189.2722 187.0186 186.8413 186.6796 186.2307 185.9517 184.4066
222.8901 225.2783 231.3331 233.8448 237.7588 237.6098 234.6492 234.3897 235.0946 236.409 237.166 255.3174 251.912 251.674 249.4052 243.0767 242.7363 242.6624 241.6917 245.6846 249.7115 249.4972 246.2535 240.0626 239.3413 241.169 243.4017 241.0104 240.6124 243.6105 241.49 241.6136 238.9946 238.4188 231.6847 222.2638 220.9086 219.51 222.5257 224.2432 225.0668 218.6345 214.3232 211.0181 209.6809 209.6809 208.2718 208.3141 212.5818 218.1508 213.4971 208.475 206.0826 204.4636 202.9014 202.7602 201.659 203.072 202.8234 199.6721 197.1424 198.011 197.8381 196.481 196.4739 194.1465 194.1465 195.1655 193.1363 193.1363 193.1363 193.1363 193.9814 197.0188 201.1554 201.114 198.8189 197.6269 194.4697 191.1212 189.9339 189.7156 188.2105 185.5578 185.5578 185.9387 185.8645 185.5505 185.4737 183.7055
232.4974 236.2827 232.8966 233.5768 228.6701 228.6701 228.6701 232.5878 237.6336 241.1768 243.3687 249.6891 246.76 245.2264 240.721 243.7272 242.964 240.3574 241.0835 240.8071 243.811 244.2162 243.7404 240.9108 239.1053 240.9888 246.6936 242.7917 240.5039 244.4226 244.5882 241.4344 240.717 235.2102 225.4957 226.8011 224.8283 219.51 219.51 221.6306 221.0859 219.9571 215.8623 211.7474 211.6553 212.2726 208.7548 206.4387 218.0357 218.2035 214.0672 209.3354 206.8047 202.4459 202.2802 201.659 201.659 201.7686 202.7062 201.6558 201.111 199.5821 198.0946 197.9866 195.8387 194.1465 195.8168 198.0359 193.1363 193.4311 193.3551 193.4383 194.459 196.7456 196.2994 199.808 199.7153 198.2005 195.1621 189.5226 190.4124 189.9365 188.924 187.5312 186.2368 184.7811 184.7811 185.9124 184.3744 184.7108
215.4797 226.9286 226.5614 225.9861 231.58 230.7676 231.4981 235.7726 238.0334 236.4783 239.0194 242.9388 240.7101 240.5018 244.8437 247.0002 242.4787 237.7598 240.7474 244.72 246.3654 247.2621 247.3695 241.1932 238.0734 237.4434 237.4434 239.5489 238.1301 240.7489 241.2933 240.7579 235.445 230.5638 231.5466 233.4357 228.4415 224.9917 219.51 225.6746 228.7236 220.0406 214.2024 211.414 214.3018 213.6355 210.0534 206.4387 216.5605 214.9672 211.7787 209.0771 204.2221 203.6162 203.5664 202.3867 205.1428 203.0424 203.7491 201.3305 201.1287 200.6629 199.2841 198.1615 197.3927 195.5826 195.0926 193.1581 191.3975 191.9709 192.2921 192.4637 193.414 195.8715 198.2218 199.2976 199.5916 198.0346 196.6857 190.219 189.2398 189.1049 189.2338 187.492 186.733 187.2136 188.0303 183.7116 183.7116 183.8991
224.741 219.7288 225.9861 228.4617 228.5322 233.4554 231.5321 234.5192 234.2626 237.3254 238.0663 236.9246 240.5018 246.6529 244.1696 242.0505 241.3354 237.2534 242.6061 245.5968 243.6073 243.2114 243.9117 237.4434 240.7987 237.4434 240.5144 244.4315 238.1301 240.8355 244.4224 240.2402 236.5621 227.0875 229.4921 233.9409 228.8997 219.51 224.1136 222.4207 222.0096 216.6357 214.1401 211.414 211.414 211.414 206.4387 206.4387 214.0225 215.3453 216.2262 214.0188 211.3472 206.8577 206.3129 203.0659 204.1175 203.6668 202.7579 202.6373 203.7782 201.0803 200.3566 197.8663 197.9496 196.2898 195.3857 194.0076 191.3975 191.3975 192.3787 192.268 193.114 196.7077 197.7009 197.7582 199.32 196.314 195.8764 190.4384 189.914 189.6832 189.0744 187.5036 185.846 185.846 185.846 186.3521 184.7035 183.7116
239.714 230.2551 237.2836 234.3465 228.2484 228.2484 228.2484 228.2484 231.9374 231.6562 236.7951 243.6963 242.9961 243.8198 247.7369 243.6428 229.1769 231.6643 231.6643 231.6643 231.6643 235.6335 239.4802 242.0818 237.4434 237.4434 237.4434 237.2026 244.9427 242.2359 238.6741 242.4843 231.2847 219.4933 226.5998 220.1902 226.334 219.1227 214.5691 218.9725 213.0614 213.0614 211.414 214.1119 213.317 212.4197 212.691 209.0969 206.4387 209.341 212.8601 213.5687 209.8258 208.6108 207.4525 204.0812 207.4639 214.5046 202.9546 203.5681 199.6425 201.0301 196.3145 196.3145 198.1135 196.8047 195.2529 191.3975 192.1664 191.3975 191.4467 192.414 192.926 194.3649 196.4961 198.2829 198.228 198.002 194.9231 195.3798 190.0229 189.0921 188.908 187.7375 187.9356 189.8473 186.014 185.8121 184.321 183.5031
238.9645 233.295 237.5466 234.535 230.6068 228.5143 228.2484 230.8308 231.6562 232.7253 238.4424 243.8652 246.5828 242.521 243.5854 241.1017 229.1769 236.6754 240.481 244.0497 246.2557 248.1844 246.6929 237.4434 237.4434 239.1062 241.1478 240.9371 237.2026 236.4731 236.3436 232.1906 228.3757 221.0745 218.7642 215.2616 214.5691 214.5691 219.4126 214.5691 213.0614 215.2024 216.1904 213.6382 213.317 213.0221 211.409 210.0815 206.2849 216.4224 214.8524 211.8538 212.3321 205.0624 204.0812 204.0812 204.8469 203.4871 203.6415 199.6425 201.2974 201.1725 199.5452 199.3809 196.3145 196.09 193.5848 193.4305 192.2642 191.3975 192.2121 192.4984 192.2948 193.2979 196.672 197.9694 196.996 197.0945 194.7026 194.4826 190.1252 189.1876 188.5311 188.014 187.3943 187.4148 186.5832 184.106 184.2841 183.3204
237.5773 241.1636 230.8705 229.2483 228.6587 228.2484 228.5048 231.1353 230.8308 231.3975 235.759 244.1183 246.1083 243.6862 242.0807 235.0766 228.6623 232.715 237.6596 241.3341 241.9909 242.3283 244.6952 245.875 239.999 241.3685 241.7448 244.2353 243.8739 237.6693 237.7394 241.8589 237.7687 223.1795 222.9754 229.22 226.4382 222.5727 221.4843 224.7113 222.8523 221.7594 219.2761 215.673 213.317 213.324 212.3444 207.9264 206.2849 214.8086 214.6922 210.5678 211.9461 208.4118 207.2649 205.3716 206.3454 202.6111 201.8554 199.6425 200.0534 199.8472 199.3709 197.5512 195.6764 195.1134 195.9165 193.4444 193.4447 190.9083 192.164 191.6469 191.7066 193.9221 195.5253 197.9834 196.2146 194.8129 194.4826 194.4964 190.3147 189.314 188.724 188.0174 187.364 186.8473 186.2312 186.3492 184.106 184.519
222.5136 225.6135 225.6135 225.6135 226.8496 226.9709 231.2653 234.3256 234.9507 236.8555 242.2852 240.8063 245.7755 232.9933 231.1148 226.0226 226.0226 234.8554 235.8655 240.9394 236.4545 237.6083 243.4556 243.8312 237.7622 240.087 237.9514 237.5267 246.476 245.313 239.0328 237.7394 240.9904 234.6787 218.9276 225.3857 228.9633 226.1815 222.9147 227.3023 223.3118 225.5969 219.3919 219.9494 214.4353 213.5247 211.2448 209.5917 205.0267 211.5828 213.8582 211.0283 210.3742 209.9153 207.1607 207.2953 203.3496 204.2655 201.6109 199.2234 199.6905 199.0058 198.0684 198.039 195.778 196.3848 196.5022 195.014 191.8154 190.9083 190.9083 190.9083 191.584 192.6144 195.2458 195.4469 195.5226 194.9529 195.014 195.9951 191.4923 189.531 189.014 188.3781 187.514 186.9985 186.5363 187.3429 184.2158 183.1145
229.4837 233.6917 236.2388 237.5132 233.492 227.1932 230.0235 232.6143 233.7218 236.9158 243.2054 240.3992 231.6098 231.421 234.4908 231.0907 226.0226 229.4668 236.9649 236.4545 237.8225 239.2766 241.6046 245.0095 235.4552 234.981 234.2871 237.9652 238.8454 241.2437 240.7331 239.3045 240.9644 234.8455 225.0799 218.0377 229.5831 224.7739 222.0392 226.8084 225.9054 220.5601 219.2369 215.2511 212.9974 212.1763 208.662 205.0267 205.6731 212.6631 214.6509 212.4994 209.6351 208.8828 208.8151 207.1397 204.321 199.5656 201.8067 199.5656 198.011 198.011 197.7896 197.8106 197.8035 196.5235 196.4927 194.9045 193.6034 190.9083 191.1169 191.2993 191.914 191.6 193.5378 195.047 194.9529 195.0201 195.3606 196.118 193.9233 189.9007 189.214 188.6112 187.8851 187.398 186.8185 187.4248 184.315 183.5428
230.2217 229.4837 239.2598 237.2647 232.048 229.4935 229.3693 231.5298 232.4125 234.5103 237.2833 241.4784 241.3439 243.9661 238.5872 236.4576 226.0226 234.7195 231.0496 234.6868 235.4041 235.0116 237.1631 240.4958 241.8309 233.6877 231.608 231.5904 239.9188 241.7061 241.2919 239.1025 239.1025 233.983 228.5161 228.7335 216.2354 218.9357 219.668 225.6676 228.2406 224.4391 215.3974 213.0609 210.3638 208.662 209.8157 209.1736 204.2259 206.37 214.8518 213.7394 211.6788 210.1772 208.0912 207.6375 207.1843 202.8248 199.5656 201.1175 199.511 198.4985 196.994 196.5115 196.5506 195.0649 195.4704 196.0685 194.9595 191.9261 190.6553 191.3628 190.899 190.899 192.0357 196.3618 197.3018 196.7733 196.0097 196.208 194.5612 190.0924 189.3908 188.7141 188.014 187.3079 186.8382 187.415 184.3186 183.915
231.5478 234.2058 237.4947 232.9703 231.032 230.2313 229.3693 231.621 231.521 231.521 235.3162 237.1165 245.0876 241.6396 242.6197 236.1493 226.0226 232.2128 231.8094 231.3519 237.9367 235.3878 232.5378 234.3698 239.2465 230.8783 230.3172 234.1936 238.7676 243.6032 239.1025 245.7665 243.9817 237.3471 232.6058 228.4416 215.3143 215.4147 223.2434 219.668 225.582 221.3234 215.9532 215.8751 211.2178 212.6624 210.2691 209.2422 208.6111 204.2259 214.3322 211.7537 214.6833 211.2446 208.6165 206.7946 206.6809 202.7358 200.587 200.46 198.2696 198.2696 197.2219 196.2179 195.011 194.7074 194.1846 195.014 195.014 191.9135 190.6553 190.836 191.5333 191.9005 191.6974 194.0324 195.8046 198.4561 196.8869 196.4557 197.8575 190.156 189.321 188.6689 188.014 187.4314 187.2926 185.8634 184.3327 184.315
234.0812 239.8952 236.9705 233.5432 232.2219 231.2055 229.3693 229.3693 231.521 231.9141 236.3789 239.1787 243.5665 237.6297 235.6979 229.1199 226.0226 236.9861 237.9779 237.9537 231.9458 232.328 235.0521 228.837 231.0132 227.5795 231.5359 238.0556 243.4765 245.9758 246.7108 243.5688 243.979 234.5616 228.8599 228.7617 221.948 214.6162 220.43 224.5636 225.2351 223.1952 213.4824 212.7056 212.7559 211.8012 210.1963 210.2153 207.4339 206.3952 204.2259 209.1466 215.5094 213.3052 208.7997 208.4832 206.6069 203.0469 202.35 201.5051 198.2696 199.4803 196.7238 196.2318 196.4481 195.1522 193.4888 194.4076 195.014 194.5535 191.7246 190.6035 190.6035 191.2266 191.4334 191.8715 195.6495 198.5251 198.0559 197.9007 196.7762 190.3179 189.219 188.592 187.96 187.5735 187.0985 185.815 184.315 184.315
230.2142 237.4873 234.4559 230.8927 230.4068 229.5777 229.5209 229.6797 231.0795 231.0795 232.5491 237.7364 240.6282 240.9533 233.3899 231.5528 226.0226 231.9246 231.1679 233.4351 240.6433 238.5917 234.419 232.6861 227.421 228.5499 233.7148 240.885 243.9683 247.8346 243.7812 246.6532 245.5276 240.0109 227.2841 227.4892 226.6691 215.3105 214.6162 218.9074 225.3801 217.0919 212.7056 212.7056 216.2313 219.696 216.5 213.4478 209.4629 207.0249 204.2259 206.6346 215.9322 213.2677 212.2914 209.834 208.2481 203.2493 202.0034 201.0318 198.7143 199.8171 196.907 197.152 196.3738 194.9305 194.9956 192.7077 194.4848 193.2821 193.3527 192.014 190.6035 190.6892 190.6035 190.614 191.3706 192.7968 194.4921 197.2443 197.134 193.9432 190.7028 189.4285 188.6609 187.1971 186.4952 185.815 184.3552 184.4507
232.9051 231.8779 231.1844 231.6205 229.0514 229.1829 231.0182 231.3149 231.5393 231.4707 234.7431 235.1315 237.6141 230.3897 228.8778 226.0226 226.0565 227.1504 227.6257 231.4038 237.4508 232.6444 227.2593 225.6877 227.5072 227.8585 229.0399 232.254 239.9029 241.8619 239.4972 243.9952 243.1659 237.0685 231.3375 222.4556 222.9816 215.1798 214.6162 222.7721 222.4838 226.5136 214.8046 213.4 212.7056 216.6707 217.8166 216.7722 210.5975 205.0148 204.2259 204.6293 211.4939 213.6835 210.8094 210.0302 208.724 207.6478 206.0511 199.6795 199.5216 196.5138 196.0695 194.9514 196.1447 195.1957 193.2004 194.7072 191.8395 193.5006 191.9387 190.6035 191.2709 190.6035 190.6035 190.6035 191.0434 191.514 191.74 194.0184 196.144 189.7705 188.6931 188.3591 187.514 186.2426 186.4351 184.615 184.6382 184.5137
237.9183 237.7905 232.1215 231.4523 228.529 228.754 228.5703 231.0806 229.0621 229.2746 231.0556 232.8875 234.621 240.8416 239.3218 227.519 222.3842 222.2616 225.0846 231.8123 230.4272 228.1299 225.6877 232.7881 235.9792 236.8496 234.6176 240.709 241.3033 241.4877 241.1625 239.4972 234.298 238.614 232.7193 221.555 229.7514 218.6864 214.6162 221.9708 216.637 218.6629 215.9277 212.7056 218.5829 219.6381 219.2498 217.9461 212.7155 209.4582 212.2574 204.2259 207.7923 210.5169 208.2502 210.3339 210.5463 204.0952 204.2191 205.4555 198.153 197.1081 196.5188 194.1561 194.3251 193.6735 194.4021 194.599 192.7718 191.8395 191.042 190.6313 190.6035 190.6035 190.6035 190.6035 191.1233 191.8187 191.914 191.914 193.0339 189.3321 188.7141 188.0369 187.414 185.6251 186.4566 184.615 184.7374 184.215
238.9158 240.5453 235.5623 231.3132 228.9497 228.3091 228.4466 229.3403 228.5576 230.824 231.7229 231.621 238.0633 239.6559 238.6111 233.9158 238.5534 230.1339 221.4952 228.863 228.5025 223.5684 231.3996 233.3002 236.6383 234.6164 234.6233 238.9432 237.9464 239.6942 237.5394 234.298 240.2242 236.7083 234.562 220.6548 217.4236 214.6162 215.2572 223.6064 222.1788 216.1013 213.3611 217.7009 221.961 220.034 219.3943 216.6899 216.3069 209.4868 207.6165 204.2259 205.375 207.9319 209.3908 211.5511 209.2025 206.2917 204.0395 201.1796 200.2442 199.3076 198.2506 196.4335 194.1309 193.5263 194.9603 195.6492 193.5746 193.499 192.4497 191.8744 190.6035 190.7459 191.914 192.6725 191.6528 191.814 191.714 191.808 189.1722 188.814 188.614 188.914 187.0052 185.5527 185.5178 184.615 185.0641 184.215
242.207 240.9717 236.7449 231.8332 231.1843 227.6606 228.3236 228.521 229.1406 231.2285 232.6917 233.7539 231.6362 244.8742 240.6843 235.2725 231.5675 231.8645 228.2759 220.3707 221.3909 222.4864 231.0061 232.336 236.5958 235.2474 234.6164 234.6774 233.1484 231.1858 229.654 235.0004 234.0415 234.0415 234.0415 233.8186 219.6022 212.8535 212.8535 212.8535 213.5042 212.8535 216.209 219.3221 217.9144 218.4719 216.2945 213.2587 210.5353 208.7147 205.6243 205.8633 204.2259 206.0833 210.9978 215.2904 212.9745 209.3818 207.244 203.0777 199.7161 198.4095 197.47 196.8069 194.943 193.5263 193.5511 193.7895 193.4352 193.2855 193.043 191.6737 191.1062 190.6035 193.9076 193.9848 192.105 192.8121 191.9154 190.4086 188.9348 189.6275 188.7664 187.884 186.2882 186.0733 184.8354 184.6985 185.5346 185.7537
232.6374 244.3309 237.627 235.0533 229.5411 226.7206 226.8518 229.1502 230.7878 230.9659 231.3957 231.521 231.8495 235.336 244.1945 235.7065 228.592 228.7717 227.1814 225.901 220.3707 223.1606 230.6117 234.8396 235.3794 237.5544 235.6022 231.2218 226.6103 225.6026 231.2765 237.6978 243.6746 241.369 239.0789 234.4444 216.9478 212.8535 212.8535 212.8535 212.8535 213.2348 215.8326 216.3501 216.3501 216.7327 216.3289 216.311 214.3776 211.9916 208.5339 204.2259 204.3135 205.7366 204.9671 207.6966 207.6399 212.1716 214.0097 209.0537 203.998 199.2931 196.725 195.2151 193.011 192.5949 192.0497 192.0615 192.7849 192.6133 191.9653 190.714 190.6035 190.6035 194.1501 192.6133 192.7687 190.8693 190.2133 190.2176 189.2726 189.612 188.6121 188.2674 186.4985 185.6816 184.6153 184.8057 184.9558 184.215
235.0882 238.9364 236.8112 234.8108 232.8633 228.8085 226.6499 228.5436 228.7623 228.9646 228.3608 230.78 229.5688 231.7142 234.5509 228.0527 231.7332 225.467 219.1329 222.0245 220.3707 230.5833 234.7799 234.6604 236.2657 234.0445 228.3328 225.5036 225.6026 232.1236 232.6599 237.9248 237.9794 235.2673 240.2052 225.8061 221.0039 220.1122 219.082 212.8535 212.8535 213.0837 213.2167 220.013 219.9561 219.1956 220.6196 217.4595 214.6614 213.3627 208.3702 205.9657 201.5372 203.5918 202.663 202.5706 204.4386 208.2098 210.3038 207.9438 202.1576 200.0192 197.3392 196.6467 194.5552 192.6398 191.9706 192.1584 191.8947 191.6663 191.3318 191.1301 190.6035 191.2269 190.9387 191.3352 189.6589 189.1967 189.1351 188.7692 188.3882 187.9997 187.7145 187.5177 186.4546 185.46 184.3652 184.3257 184.3181 183.8589
231.5978 245.0974 240.3653 234.6176 230.3365 228.0124 225.7806 228.6123 228.7402 227.4368 227.1095 226.4354 226.8641 228.5851 231.4144 230.6293 221.2531 217.8021 217.8021 220.3707 222.3459 231.9308 229.5219 233.2256 225.9044 225.5376 225.5036 225.5036 231.5732 234.5832 235.4677 239.6063 233.901 237.1878 236.4203 231.7403 228.4304 216.8501 212.8535 212.8535 212.8535 216.5445 222.7637 224.3305 223.9602 224.1335 219.9189 219.1391 214.4804 211.9129 202.097 201.5372 201.5372 201.5372 201.5372 202.4226 209.6155 214.2156 214.5776 210.4606 206.3423 203.2415 204.1786 197.0187 191.3475 191.3475 191.0702 193.2622 191.3825 191.5658 191.0825 190.8413 191.0519 190.1493 189.4993 188.913 188.913 189.9592 189.7191 188.6532 187.9997 188.1026 187.8679 188.6068 185.9403 183.8667 183.8667 183.6926 183.3293 183.3293
240.9531 236.3154 234.3674 230.0172 227.6884 225.9674 224.6761 225.3069 226.1877 224.4321 222.4277 222.0206 225.2325 224.3347 229.1725 217.8021 217.8021 219.0979 217.8021 217.8021 218.6801 219.5342 222.4937 219.6004 229.3955 228.049 225.5036 232.5864 231.305 231.5263 231.5263 233.901 234.67 237.4489 234.618 237.2704 238.1494 223.7628 212.8535 212.8535 212.8535 218.1305 222.3345 228.857 225.6426 220.1028 215.9166 214.9204 211.814 207.8207 208.183 209.7789 205.7659 201.5372 201.9915 201.5372 204.5448 204.7854 212.0658 208.3038 208.2534 202.4703 199.3886 198.2156 192.0294 191.5219 189.4717 191.9149 191.9133 191.3825 191.5109 190.6728 189.9436 189.0111 190.5146 190.0471 189.2512 188.913 189.0136 189.4071 190.215 189.1945 187.2714 185.3804 184.313 185.5993 185.5341 185.5162 184.114 184.114
235.9734 230.0272 230.396 227.7795 225.7687 225.1987 224.6761 224.6761 224.6761 225.753 226.015 224.6864 220.9023 224.3992 217.8021 220.0392 229.3841 235.0815 234.0624 240.4721 237.1859 226.9378 219.5342 222.1565 219.6004 221.4162 228.359 228.4613 228.3845 232.484 235.9096 232.0933 234.3783 232.9948 230.4295 231.9778 231.3882 232.1192 212.8535 212.8535 213.141 221.4111 222.1432 224.386 222.7514 216.9338 217.3787 216.4402 219.9998 218.3669 214.4145 208.6853 206.8491 205.5409 201.5372 202.6956 203.3385 205.8897 205.6497 207.6474 202.0319 201.6423 197.3659 196.098 193.9937 190.8716 190.4103 189.0626 190.4524 191.9811 190.4559 190.0346 189.7604 189.313 188.913 188.913 189.013 188.913 188.7861 188.4848 188.089 187.5308 185.7224 185.4371 184.5152 184.3191 184.4069 185.0541 184.8446 183.6059
229.495 229.0939 230.8287 229.6472 228.431 225.7684 225.7293 226.6913 226.244 225.4852 224.527 223.1671 215.892 216.0064 214.9041 220.6447 226.8853 227.5247 231.5612 234.2268 237.0731 232.3424 219.5342 219.8994 232.1212 227.3385 228.6147 231.2702 228.3845 231.2193 234.4219 231.9806 230.8556 232.3711 228.2191 228.3198 231.2682 231.2844 220.0334 216.4933 212.8535 217.2462 227.9597 225.5088 225.8977 223.559 217.6983 221.2674 218.5489 219.414 216.8595 214.9585 212.2781 202.8425 200.9632 200.9632 200.9632 211.2114 210.0234 207.782 205.5111 201.5816 199.198 196.1358 194.2202 191.0771 191.3118 190.9421 188.8836 189.3432 190.1928 190.3465 190.0555 189.0187 188.913 190.0725 188.913 188.913 188.513 187.9402 187.4326 186.1905 185.5554 185.213 184.613 184.4917 184.314 184.5134 184.0109 183.114
227.0826 235.7814 240.1999 235.3726 230.6131 227.7705 228.0785 228.1499 225.47 222.4729 222.4936 219.5168 222.4116 214.823 214.823 216.0116 219.4629 222.9443 229.0177 232.0479 234.1445 231.119 224.6085 219.5653 221.9335 228.8462 227.3385 228.3845 228.3845 230.5922 235.6891 231.6315 228.5391 232.4739 228.5456 225.9107 229.4537 218.0913 219.6642 210.5387 210.3263 221.7831 219.3187 233.3207 228.4615 225.4667 224.3615 222.5204 219.1556 218.4983 210.9644 210.3515 205.7624 208.0317 204.5233 206.2987 200.9632 202.1943 207.0935 205.4417 201.3111 198.5097 197.7982 196.6139 194.7913 191.0073 191.0073 192.654 189.6161 188.8836 189.1132 189.5154 189.7171 190.1909 190.4075 189.1447 188.913 188.6593 187.9849 187.1674 186.593 185.813 185.513 185.1759 184.7247 184.5084 184.3237 184.314 183.845 182.814
235.7354 236.0649 229.1985 228.2191 227.7869 226.5703 225.5141 226.4989 226.1145 224.5128 219.7846 222.3082 220.4653 218.8954 215.4308 214.6717 219.5745 217.7883 215.823 223.1617 225.1202 225.6652 221.1022 225.0989 225.3336 228.9769 234.4348 231.592 229.6205 231.5136 231.5648 231.4845 228.518 231.0437 228.8855 234.3346 222.3788 221.6498 208.4864 207.7105 214.8559 223.224 224.9889 231.4687 228.5788 222.5137 221.4114 218.3982 213.5926 215.7843 216.3348 205.7624 207.2219 204.4137 201.3274 200.9632 200.9632 203.4537 204.9297 201.599 198.0612 199.2221 195.164 195.0436 191.8127 191.4481 191.265 190.713 189.0961 189.1383 188.8836 187.6651 189.2135 187.2601 188.679 188.6676 188.5656 188.9016 187.0555 186.1862 186.6825 186.9582 185.1863 185.0451 184.5879 184.3802 185.0765 185.1343 182.7273 181.8782
235.7339 230.6954 226.3674 225.8623 224.9977 225.5803 225.5141 225.9194 225.523 223.023 219.3776 222.483 222.423 220.5359 213.5066 215.7958 213.9049 215.723 229.4852 231.4224 231.7144 231.3985 231.8014 228.8686 226.2123 229.3366 234.0425 231.3638 229.8569 228.518 228.2702 227.2952 228.518 229.0019 231.0349 226.968 219.441 210.7799 207.7105 210.2233 225.9739 224.0372 225.289 225.5672 232.6164 227.8302 218.5162 214.7888 213.5926 213.5926 209.6872 208.3661 207.5791 211.2097 201.1698 200.9632 204.4067 202.5383 203.8368 198.9681 199.8848 196.5617 196.7814 194.1347 193.5313 194.1263 191.62 190.413 190.013 189.6202 189.1095 187.5599 188.8719 187.2601 188.2339 188.1622 187.313 186.9381 185.8946 186.534 186.6911 189.548 185.5666 184.907 184.013 184.0356 185.4205 191.4633 182.9087 181.259
232.7529 227.386 225.4291 224.6882 225.529 225.5438 225.2921 224.9146 223.9696 224.3059 222.1738 219.3776 219.3776 218.9509 215.3509 213.5066 213.5066 219.4229 221.8512 224.2569 229.1117 231.2536 233.9573 228.523 227.7264 226.5244 228.876 229.7723 231.721 228.5417 225.8566 231.391 234.7771 231.0448 228.4103 228.6388 209.6524 207.7105 208.4952 221.9137 224.9516 231.5868 231.0368 228.282 221.0111 215.7364 215.7364 215.9251 220.5215 218.1044 221.6168 216.1365 215.3004 216.7895 214.0773 199.0993 197.8737 202.9801 198.427 197.0042 196.4725 196.4725 196.6322 195.8023 193.5313 195.2851 193.7539 190.413 190.313 189.713 188.9822 187.5599 188.613 187.2204 187.446 187.3163 187.3317 186.6252 185.713 185.513 185.5117 184.8168 184.2133 183.7496 183.523 182.71 181.4655 181.421 181.504 181.253
231.4386 224.6882 224.6882 225.508 225.4865 225.2921 226.4206 225.9315 225.523 225.523 222.7256 222.423 221.2286 217.8875 218.3832 215.0865 215.6616 213.3202 218.2934 223.9712 229.4425 234.9586 228.523 235.1035 234.3504 225.8644 225.8644 228.5233 232.3445 229.0697 225.8566 231.3714 233.7659 221.8676 214.0466 206.9178 206.9178 215.7832 207.7105 216.5584 223.3071 223.0658 222.3731 215.7364 215.7364 215.7364 220.6848 219.1598 223.8893 226.4738 231.3198 227.2299 222.3694 219.4288 215.5101 205.6773 203.2571 197.8737 196.5089 196.5089 198.1076 198.3388 195.8023 195.883 196.6558 195.9859 196.5091 190.413 190.413 189.935 189.2069 187.5444 188.5869 186.4915 185.5576 182.33 185.8969 185.5349 185.213 185.013 184.6073 183.9002 182.9328 182.5332 181.314 181.314 183.3654 181.314 181.7187 178.9515
225.4889 224.6882 224.9715 226.5542 225.6083 228.1561 228.0332 228.3686 226.7094 224.967 222.423 219.4477 220.1204 217.5072 215.5165 216.6724 213.2763 212.7056 216.5526 226.2286 226.747 234.744 237.5883 237.9958 226.3909 225.8644 225.8644 227.4633 230.1511 230.3351 220.4534 219.4904 209.7819 204.5067 203.958 213.7075 220.0552 225.1343 213.3975 218.0538 216.5584 216.5584 221.425 220.3566 225.9394 228.5791 230.1339 230.0705 229.4877 227.7753 227.5094 224.1167 219.3465 217.9001 216.8168 208.5967 211.6294 197.6726 200.9657 197.814 197.8731 201 196.8267 197.9805 195.883 196.2338 195.6101 192.196 190.3341 190.0354 189.1315 188.3558 187.5444 185.5576 189.0359 186.7771 182.3061 184.8092 184.6805 184.515 182.7728 181.8602 181.8602 181.6912 182.0705 182.1641 181.314 183.6422 181.314 181.314
225.9495 224.6882 225.256 225.0372 224.9939 225.5494 225.7659 226.4777 224.6459 222.8246 219.323 219.1303 219.565 216.7414 215.3211 215.4851 211.7558 211.214 213.4805 213.6636 227.835 232.0384 236.6507 231.513 227.5704 227.5549 225.9168 225.4527 224.1275 226.0891 223.3606 225.765 204.8494 203.94 210.3586 218.7272 225.4299 231.1392 228.2736 227.3895 223.5412 226.293 222.4724 225.795 228.7823 226.31 232.7798 230.3277 226.2663 227.3629 226.929 226.0015 226.104 219.3063 215.9332 218.7932 214.7615 216.1744 199.4474 197.814 201.9778 205.9875 204.1328 201.2029 197.8274 196.8416 195.2439 194.7533 191.257 190.213 189.8373 190.4482 188.57 189.7745 188.6599 188.2924 183.7761 182.236 181.527 181.382 182.8227 181.9647 183.9328 182.9333 181.3618 181.314 181.7142 181.3141 181.314 181.6137
222.2714 221.8626 220.0495 219.1963 222.4217 222.4189 223.4778 222.4615 222.423 219.8493 219.423 216.4558 214.6858 214.6198 213.6628 217.5881 211.214 211.214 216.7561 217.8816 224.0816 226.9073 227.9628 227.5469 233.9527 234.5569 237.5448 238.5479 221.3717 228.6944 228.9277 217.7401 205.4825 203.94 206.1619 218.4881 220.0502 222.69 226.0029 231.7999 234.2368 229.6362 228.9805 228.518 228.643 222.859 228.9577 226.6573 226.2663 231.2547 227.2896 228.7797 226.565 225.8457 217.9151 217.0072 213.6657 212.251 209.7692 198.2697 197.814 199.1613 203.0777 205.8696 202.3868 200.8144 199.8583 195.1453 192.8275 188.8538 188.8538 187.413 187.413 186.9768 186.5782 182.6055 183.0812 181.4503 181.382 181.382 182.5943 181.8403 182.3865 181.314 181.314 181.326 181.314 181.5878 182.2617 182.2863
219.3148 217.3279 218.5942 219.8506 222.472 222.4189 222.4189 222.423 227.0058 222.5404 218.299 216.9818 218.117 213.5967 213.5967 216.3964 211.214 211.214 212.2156 213.0444 217.0779 223.2791 224.8936 226.1747 234.3795 234.314 234.7207 231.0791 219.3102 223.6662 225.9489 220.9911 204.4586 203.6852 211.0135 207.1212 209.1447 220.0516 218.3155 224.4387 219.433 219.3009 222.0896 217.5898 218.282 221.7709 223.385 226.865 225.5175 229.7483 227.3365 225.464 228.8499 220.6326 221.0234 214.7104 216.8749 217.4734 212.0699 208.6814 197.814 197.814 200.0206 205.2529 204.9364 198.4162 197.5525 199.1208 195.1494 190.7737 189.374 187.7483 188.8463 185.5037 187.4067 182.179 182.179 186.914 181.6013 181.3985 181.382 181.382 181.314 181.6744 182.2425 182.8999 182.9444 183.1651 183.3506 183.8507
216.33 216.9324 218.5121 220.0558 223.6933 224.9739 225.599 221.5735 221.68 216.7291 216.323 216.9735 216.323 216.3355 215.4718 213.5967 211.214 212.9394 211.214 211.9658 214.0958 216.148 219.8319 222.7168 229.0762 233.3385 231.7465 227.9305 218.8865 221.6615 214.9738 205.1769 204.0344 201.5099 225.6179 234.5231 220.8357 215.5862 215.5862 215.5862 215.5862 215.5862 215.5862 218.1927 222.7994 221.1933 221.1933 225.5175 232.2026 230.2344 227.9471 225.377 225.377 221.6623 222.9574 222.114 222.1479 220.8998 218.0885 212.2714 199.0124 197.814 199.6385 204.4651 202.9507 204.4004 201.0589 197.9289 196.5678 196.0108 193.628 190.9661 185.5037 189.0648 187.027 182.179 182.3613 189.5367 189.9408 187.1985 185.795 185.495 184.6757 184.313 184.313 184.2174 184.2103 184.314 184.314 184.214
218.5378 219.1452 219.3949 222.46 223.0169 221.223 220.6666 221.9557 219.423 216.323 217.7759 217.5488 216.8813 215.7638 213.1681 213.1443 212.4389 211.214 211.214 211.214 213.6561 214.4469 216.1866 221.6728 227.5334 218.8865 218.8865 218.8865 219.0129 224.464 224.0815 217.9943 201.5099 202.505 219.7455 224.614 229.1732 231.237 227.7185 230.2764 225.7684 229.4293 230.9723 226.5323 228.495 221.1933 222.833 221.1933 224.5739 234.1482 228.6423 231.9875 228.9336 228.9236 216.7676 220.8525 222.8882 218.1529 215.2955 209.1412 197.814 197.814 206.3473 208.7824 207.5319 203.379 201.4292 198.0996 196.5031 195.4399 182.6125 182.6125 184.2441 182.179 182.179 182.179 187.5169 187.343 187.8844 188.2564 188.227 188.227 187.832 187.2471 185.8318 185.252 184.9637 184.8258 184.4963 184.314
215.7041 216.5369 218.8317 222.2488 218.194 221.1049 221.457 219.6165 220.563 220.3444 216.223 215.4709 213.7609 213.1681 213.4226 215.4071 213.3697 212.6058 211.214 212.3341 211.8759 214.0858 217.6001 222.0909 218.4651 225.5128 225.9204 229.4314 222.304 222.4155 220.2634 218.9659 211.4767 200.5552 207.0966 222.6131 220.5014 227.6861 224.0022 226.8118 228.1003 234.6346 230.9682 228.8142 227.7276 233.6257 230.2463 226.0691 223.6912 228.114 229.9283 227.8451 223.9738 221.3333 220.7517 216.7676 220.056 218.257 207.1967 209.2493 197.814 208.4263 214.017 213.7861 212.0325 206.3447 203.1198 200.6817 200.8744 182.6125 182.6125 182.6125 184.5715 182.179 183.7219 182.179 185.4289 186.6628 187.3121 187.413 187.413 187.413 187.413 187.467 187.7796 188.8998 186.1778 185.8142 185.632 185.11
210.5608 216.7725 218.7713 216.2387 216.2387 217.9177 217.9177 219.085 223.6237 221.6184 216.465 213.639 213.639 215.856 215.2667 215.8854 213.4759 213.2416 211.214 213.4474 212.5332 208.9722 216.8356 217.1768 214.0229 228.1907 229.0117 228.5581 225.7958 224.718 224.6144 215.2792 213.4261 200.5552 203.7345 209.1229 209.1229 209.1229 216.2669 224.9233 229.8367 226.1512 226.1512 226.1512 232.2286 231.8766 231.1139 231.1746 223.7612 226.4522 230.7036 227.2412 223.9836 223.5513 217.7661 220.8233 214.4088 213.8069 207.1967 207.1967 199.8475 202.4805 217.0102 216.8392 212.7588 211.8152 201.461 193.7081 188.4406 185.6436 183.4104 185.1752 182.179 182.179 182.179 185.8206 185.7733 187.0001 187.413 187.4353 187.571 187.413 187.413 187.413 187.413 187.5169 189.3771 189.0389 187.0597 186.3857
212.4743 214.7778 216.6809 217.2148 216.2387 218.5883 218.464 220.8725 219.4234 218.2553 213.8535 213.8192 216.7469 213.7241 215.051 212.569 211.9116 211.214 213.2464 215.0402 214.4291 208.0697 206.6805 213.2252 218.0477 225.3099 225.8932 229.6179 225.517 228.7697 231.1698 219.3863 207.0169 202.2184 200.5552 215.3526 217.6009 223.5202 225.4628 223.7931 226.1512 226.1512 227.7983 229.5215 229.9357 229.9357 235.2301 232.8957 229.5268 232.4904 236.425 234.7252 225.3931 221.3826 223.1532 224.0102 223.7077 219.6166 218.1599 214.9761 201.2695 194.5945 205.1639 213.494 208.4152 210.6089 194.5782 193.5011 184.1019 182.813 184.2722 182.179 182.179 182.179 182.179 187.3141 186.9147 187.413 187.413 187.413 187.5702 187.413 188.5226 190.5856 189.2093 189.9698 189.3064 190.1461 188.4212 188.5399
219.8889 217.6152 215.6586 216.2387 216.5083 217.9336 218.2684 220.5456 217.7397 215.8474 213.2585 212.9654 213.1497 211.9321 211.9321 211.9321 213.3353 209.8768 212.6709 214.6803 213.4249 211.1565 206.6805 209.0164 218.7704 220.6014 220.3615 221.5377 226.8559 232.4741 225.9305 221.6185 213.7181 206.305 199.3124 215.4975 227.5058 227.5067 225.7293 235.1923 232.8745 231.6311 233.177 231.5804 230.918 231.9555 231.6993 233.0775 235.0281 231.0876 227.133 231.0112 225.1433 221.0956 219.4344 223.2948 221.0592 214.7797 218.0517 211.7836 209.4263 205.7032 194.5945 203.5603 211.9398 206.4281 202.3261 185.6561 182.179 182.179 182.3394 182.179 182.179 182.179 186.4603 187.413 187.5784 187.813 188.0146 188.2188 188.2525 188.813 188.913 188.913 188.913 188.9172 188.9188 188.9762 189.1525 189.4255
217.7884 213.2334 213.5664 213.328 213.0235 214.7474 213.184 210.1877 210.3867 210.774 212.9654 213.0255 215.3073 215.8465 215.8541 214.5508 212.723 209.8768 212.4791 214.1949 213.4907 212.7738 211.49 206.6805 206.1362 209.2353 217.7402 218.5092 226.9984 229.5272 230.5702 219.1984 212.6267 205.3302 199.3124 204.0103 210.1447 220.4797 232.2173 232.7492 231.9484 232.2561 234.5895 231.4266 235.1694 238.0674 234.0414 235.2715 235.8672 230.4022 227.1775 227.133 226.9853 220.599 219.7746 217.4692 216.7798 214.3274 218.0144 215.1169 205.7695 198.9614 195.3527 194.5945 207.9363 192.7143 184.3748 182.2751 182.179 182.179 182.179 182.8005 183.4609 186.8368 188.0962 188.6173 189.0026 188.4094 188.5887 188.6721 188.7704 188.564 188.9483 188.862 188.8901 188.9077 188.9132 188.9127 189.2576 189.2137
215.9119 213.2334 214.5393 213.1748 211.8644 210.1877 210.1877 212.1995 214.2451 214.4142 219.6311 215.5604 216.0167 215.4969 214.7977 213.5942 210.9056 207.3615 210.4588 214.3871 210.9025 211.6568 211.4497 211.0242 207.0017 201.524 210.0913 217.5098 226.1033 227.4302 227.2013 225.3787 225.9791 215.4855 199.3124 200.4343 221.3521 223.5185 228.275 231.0327 235.2732 236.7664 239.0552 236.8798 233.3367 232.7707 237.4598 234.2155 236.6785 233.6903 226.8693 224.1609 220.0543 222.7723 214.5236 216.7843 215.724 214.3274 214.3274 214.9964 208.1833 199.8639 194.5974 193.2234 202.7966 184.0373 182.6699 182.179 182.179 182.179 182.179 187.806 187.5515 188.1985 189.243 190.3985 192.6409 188.9196 188.5998 188.2601 188.0723 187.6938 187.5603 187.7429 188.8047 188.8312 188.9127 188.9127 188.9183 188.9535
216.8474 216.5208 213.2334 210.2713 210.1877 210.2815 213.9094 216.3895 215.4861 217.1085 217.926 216.0124 214.3378 213.3824 211.7066 212.7591 207.8847 206.6983 209.7359 211.7765 212.0502 210.6874 208.7092 207.6176 204.3006 200.1283 205.9768 214.9258 219.9839 224.7609 228.4133 234.2184 223.6704 209.6139 198.8849 198.8849 216.5737 223.1527 227.1729 230.4778 232.8152 242.0084 233.9708 232.8329 232.4676 231.4814 230.5797 232.1784 225.1307 230.9565 221.0056 215.5771 216.1525 212.6054 213.3553 217.7184 218.8213 221.3202 217.1083 213.7312 212.3689 208.6096 188.0406 192.5512 183.7496 182.2212 182.179 182.179 183.0665 194.3056 196.3433 199.394 192.2174 189.7288 189.2176 189.8073 189.0313 188.4659 188.4627 187.9104 187.4067 186.9977 187.4081 188.9002 188.908 188.9076 188.9069 189.1205 188.905 188.905
212.9733 210.953 210.1877 210.1877 212.8529 217.8175 220.9877 215.66 215.0894 214.8161 213.6737 213.228 214.9125 214.8714 213.1895 207.8847 209.0155 208.7698 204.9502 203.4997 203.207 210.2284 210.79 205.3634 201.9259 200.1283 203.7849 212.817 218.6544 223.9716 228.4735 228.207 225.9396 207.1116 199.0074 198.8849 222.3319 228.2791 230.4177 232.8377 235.4483 234.3237 235.3318 234.005 226.4905 228.8062 227.9759 223.0035 223.7814 222.7012 213.8744 207.1625 212.6054 216.7595 220.4358 222.9198 221.1383 215.3613 210.5488 207.3188 202.674 196.1517 188.3836 185.1859 182.2212 182.2291 182.179 199.3656 203.3893 197.7061 208.9744 195.5184 192.8007 193.9684 191.3555 190.3304 188.908 188.4789 187.8153 187.508 186.3298 188.0465 188.0804 188.4366 188.862 188.9061 188.9419 188.905 189.2096 189.3066
207.1969 204.5245 213.4625 214.413 212.7257 215.8916 215.7488 215.188 216.341 215.9135 214.1876 213.317 211.0423 208.5619 207.9929 210.1224 211.9892 209.3991 208.6865 201.7273 208.9017 208.7866 204.9234 201.4988 200.1283 204.3068 207.1302 210.2102 216.555 221.0008 225.4465 212.2316 238.6399 210.625 198.8379 198.6567 216.3375 226.3582 229.1436 230.8191 225.5622 226.32 230.7084 231.3392 233.2095 224.6969 219.6168 219.4306 219.2109 213.0127 210.7661 205.2372 217.7058 216.1408 216.1408 216.1408 222.4933 216.1871 214.5024 199.1502 202.2323 187.5374 185.3365 182.2212 190.4879 197.9787 207.729 203.2511 214.0115 218.4023 211.4124 207.7924 197.4495 195.8165 201.1695 191.4332 188.908 188.1944 187.547 187.1973 186.2762 187.408 188.2108 188.408 188.4778 188.5809 188.7411 189.005 189.3673 189.6353
204.5245 210.5058 206.3967 207.208 213.1949 211.9688 212.7748 211.8854 212.6955 210.9058 210.9058 213.6461 213.385 214.1402 212.0014 211.4263 210.4219 207.6902 209.2402 201.7273 204.4496 204.3972 204.3898 199.3173 199.895 203.1005 204.0233 210.6412 223.8254 225.0071 216.9546 210.1488 204.4606 205.4251 196.1953 204.2452 217.0285 224.4406 225.4222 225.2445 225.8078 225.2445 226.8752 226.8752 236.4773 228.5995 226.5763 221.9377 212.7646 210.7672 204.324 216.4139 219.8981 216.8003 221.1499 216.3316 217.211 204.3932 203.4386 195.9179 182.4794 187.7256 182.2212 182.2212 187.1921 202.442 212.5829 218.8425 221.4697 225.1643 210.5861 215.0964 220.3922 210.9486 202.2551 189.592 188.3095 187.1972 186.3087 186.2762 186.334 187.136 188.5353 187.808 188.6125 188.1708 187.4669 188.3038 188.805 188.905
218.3125 216.45 214.603 213.1704 213.3341 215.3757 211.1051 211.7121 211.5389 210.9058 212.3549 211.953 211.5654 211.1165 210.2176 208.7747 208.3089 205.6182 204.5987 199.5972 202.3947 205.3693 201.7385 197.6418 197.0679 202.356 203.8213 208.1142 208.7602 208.3187 194.913 198.5071 198.0007 196.1953 196.1953 218.1218 225.6855 224.5969 224.4225 229.4063 225.2445 225.5178 228.5359 228.3578 233.4193 231.1174 225.7072 219.1918 222.5814 213.5668 204.324 208.9124 213.4084 212.0877 215.9122 219.7612 210.581 193.4961 182.2212 182.2212 182.2212 182.2212 182.2212 205.556 214.558 214.7233 217.2082 217.6763 212.0341 206.908 213.7048 216.8904 209.3509 200.9327 201.4332 187.0592 184.3495 185.5202 188.4962 182.6051 183.1136 183.8039 184.9144 186.2234 186.042 185.9524 187.4059 187.8728 188.3881 188.9142
221.7379 211.2111 211.2111 211.2111 212.8177 211.2111 212.1049 210.2894 210.2642 212.7393 211.5374 211.3629 209.8218 209.9377 208.5352 210.0711 203.7928 204.1189 199.5972 200.9903 202.8185 200.6343 194.3295 199.18 195.8437 193.4785 193.8566 194.913 194.913 194.913 196.0812 194.913 196.1953 204.9359 217.9728 221.693 216.6307 220.0079 225.2411 227.5229 228.0486 226.1158 224.635 225.1255 228.944 230.1332 226.5903 229.3021 225.908 218.228 210.0204 204.324 200.3289 206.2914 206.8688 198.0616 182.6523 182.2212 182.2212 184.8466 197.5328 212.4194 206.5414 201.85 217.4072 211.939 220.84 213.6259 205.0922 216.9414 203.9262 212.9431 208.8119 199.5502 191.7043 182.6399 181.405 182.1471 182.5395 181.405 181.6156 181.405 181.405 181.5406 182.0011 182.4101 182.926 186.3253 187.9952 188.905
224.3545 219.608 215.8706 213.2999 211.2111 211.2111 212.071 211.2373 211.8544 208.9031 210.6066 209.6955 211.2742 208.5964 206.1686 207.4581 201.4732 202.4238 202.7283 194.4535 198.9705 193.5852 192.9907 192.9907 193.4785 200.9645 201.3519 207.0712 210.2136 210.6555 219.4467 219.2787 219.8619 217.8945 217.8496 210.979 223.5701 228.6812 228.0413 230.9218 232.0453 226.3472 219.3351 222.6292 228.9599 231.2814 230.0765 222.2451 226.9621 217.8221 212.6225 194.116 199.5688 208.5701 186.644 180.1452 183.5395 182.2212 193.7933 214.8651 221.2887 209.012 214.8354 220.7802 213.764 210.2913 206.065 212.1975 209.7278 198.7423 198.382 212.6412 205.6865 198.4812 181.405 181.405 181.405 181.405 181.405 182.6673 181.405 181.405 181.405 181.405 181.405 181.7224 182.0634 182.105 184.3206 188.905
225.538 221.9268 217.0247 214.57 214.2391 213.0054 213.0985 211.9335 210.2883 209.8322 208.7738 205.7712 206.2444 203.7328 203.3442 201.3247 202.3701 202.4042 200.6838 194.8551 190.419 192.9907 196.03 200.371 205.1304 203.5618 205.1554 206.8522 207.1821 207.4675 215.295 216.3752 216.4271 211.4987 209.9814 216.9897 219.3405 220.8189 223.8344 226.6837 231.6001 220.5443 219.7827 219.3351 225.1104 224.6009 226.0418 224.9685 218.2889 207.6456 187.2136 189.9217 182.6801 180.1452 180.1452 181.7531 191.6402 211.8737 213.7831 222.6504 208.7524 197.1615 200.4961 203.2768 201.7495 201.8073 196.3744 198.8389 190.5451 197.2707 198.2781 201.7107 183.4444 181.405 181.405 181.8384 182.7449 181.405 181.405 184.9975 186.3278 184.3415 182.0812 181.405 181.405 181.405 181.405 181.505 181.5876 185.6033
223.4848 229.2214 219.9024 216.8387 214.1248 212.3971 212.0026 209.8798 208.8356 208.4159 204.7913 203.8831 202.9312 204.206 202.8932 200.2289 197.9862 197.5346 193.601 190.419 195.2974 196.1848 197.8852 197.809 199.0374 201.8607 201.2012 201.3661 206.8769 206.5098 207.8715 207.6732 207.6732 209.1065 212.7956 216.5099 220.0247 221.7779 223.9316 222.993 223.4151 213.0365 214.313 220.2259 223.8562 213.6946 220.5819 203.4495 197.568 181.2898 179.7775 179.712 180.4996 180.1452 180.1452 180.1452 180.1452 180.1452 180.1452 184.1328 183.6454 183.6454 183.6454 183.6454 183.6454 183.6454 183.6454 186.5507 191.9979 182.4653 189.2093 181.405 181.405 181.405 181.405 181.405 184.326 184.408 186.2843 185.4539 186.7498 187.2654 188.2971 188.9071 186.5877 181.92 181.405 181.405 181.4917 182.1132
222.707 229.2121 224.6036 216.2822 211.0336 212.2645 209.3686 209.9236 211.796 209.8742 207.4799 202.3075 199.9579 197.7184 196.1412 195.1361 191.5115 190.9699 190.419 195.9225 194.808 194.919 195.7364 195.8931 196.519 199.5588 200.7554 201.7022 204.2072 202.0811 203.5703 209.9044 209.5992 209.8411 211.3452 213.7265 217.3916 221.8779 222.3879 216.1567 216.5751 209.763 208.6836 210.7252 185.1826 182.1961 181.0707 180.1643 179.2707 179.1622 179.1622 179.1622 180.1452 191.3753 199.7078 206.2681 210.6941 199.3168 200.0064 196.8368 189.1055 186.3058 191.6644 191.5851 183.6454 183.6454 183.9041 181.6486 181.6486 181.6486 181.405 181.405 181.405 181.405 181.405 183.2363 186.9787 184.9923 189.914 186.5737 184.1465 186.7717 187.2784 187.6235 188.5728 188.9141 183.7876 181.405 181.405 181.405
227.5032 234.3512 229.0541 219.6806 213.1507 210.1876 207.9834 206.7803 207.055 207.5496 203.5501 200.8165 200.4235 199.5479 197.4353 196.7198 190.419 190.419 192.7648 197.0746 196.7368 194.6004 194.8507 195.9669 195.8931 197.5309 197.7721 198.015 202.0811 202.8753 203.8862 206.6217 210.6925 213.6044 217.9019 215.4117 216.3584 215.0953 219.8767 207.3851 195.601 183.8542 179.5677 179.1622 179.1622 182.6829 179.1622 179.1622 179.1622 186.2897 189.9075 201.9681 213.3784 209.5038 207.9157 213.0869 213.9919 215.8016 200.7353 217.4961 214.4453 210.0845 206.2589 202.1752 191.2095 206.5348 207.0775 200.5643 182.1674 182.4406 182.9052 194.1309 190.4283 185.1153 181.405 181.405 181.405 181.405 181.405 181.405 181.405 181.405 182.3243 186.0299 187.0465 188.4334 188.9026 185.4141 181.405 182.1866
222.8132 233.4958 221.1579 216.2551 213.072 211.1219 211.2732 208.7342 204.1455 203.8781 201.3583 198.9756 199.572 199.9898 199.6655 191.453 190.419 191.6197 195.5821 196.3324 196.5126 194.7786 194.6004 197.929 198.6142 200.3856 207.5415 200.2529 200.438 200.8319 201.5466 204.1438 207.9286 214.4219 216.3037 217.1092 213.2918 213.0098 203.6169 182.8559 179.5583 179.669 179.1622 179.1622 180.0523 179.1622 191.7711 208.157 218.9533 216.7411 209.16 211.4662 213.7318 214.9189 214.768 216.9502 218.2649 221.1857 218.5762 207.6774 219.5226 225.7897 223.5311 214.8579 206.6615 217.3414 215.7455 222.7236 214.4185 215.2436 214.6789 199.7693 214.4751 208.5528 192.8849 189.1267 189.0479 185.6569 185.4849 182.7382 181.405 181.405 181.405 181.405 181.975 186.4866 189.1876 188.4759 184.0413 181.4838
218.6464 228.2551 223.0468 218.0755 213.3046 213.5021 208.0261 208.7913 203.9793 201.3842 201.7198 201.3441 198.9756 199.1403 196.0055 191.5858 188.6705 193.4692 194.5639 193.419 196.0546 192.5843 194.6508 198.4569 196.566 198.4764 199.0063 199.0063 200.0215 204.1073 203.3714 204.0145 205.8487 213.2986 213.2159 210.2262 191.8095 179.1622 179.715 179.3935 179.1622 179.1622 182.7608 205.7682 197.6424 221.6199 209.525 224.7594 224.7978 224.4655 219.4682 217.834 216.2485 213.7318 213.7318 213.7318 222.8601 215.9918 214.2764 218.9387 220.6138 221.4478 226.931 228.3261 224.2262 219.2571 221.152 211.8168 208.85 206.459 206.973 202.172 210.3543 210.1157 202.0121 193.1372 199.762 192.9407 190.2449 189.4434 188.9115 187.4857 182.0925 181.405 181.405 181.405 184.0593 189.6446 190.2213 186.9068
218.6061 224.081 221.8441 217.1002 211.9282 210.4211 207.2688 202.6628 203.1366 202.9464 204.1735 200.9642 196.2428 193.5611 190.6663 189.8038 187.397 192.6562 193.5519 192.6744 192.5843 193.0963 193.5367 196.1341 196.3567 199.8301 200.9214 201.0826 206.2543 201.7524 202.9076 207.0239 205.6099 207.2636 197.0203 182.382 179.1622 179.715 179.1622 179.1622 186.251 209.1991 222.5999 222.6745 218.5379 221.5932 224.7798 216.2527 222.1081 223.5418 221.7469 223.9648 220.746 215.4281 219.0234 221.1578 223.8587 222.416 222.1201 215.8571 211.9644 223.8277 231.4493 229.7316 222.7041 221.1145 216.5364 211.9859 206.459 212.0849 202.429 210.4906 214.6669 218.5294 213.631 205.4095 202.2719 201.7476 198.5271 188.9115 190.6975 188.4126 188.6766 186.2743 182.8 182.4298 182.3966 182.7805 184.1395 189.2394
218.4877 222.5977 215.8034 214.6295 212.8925 207.338 203.9353 200.9193 204.4633 201.5737 197.8633 195.3352 194.8209 194.6144 190.8568 190.3625 185.8801 193.022 194.9083 193.88 191.6598 192.9504 192.6951 194.8895 198.7841 198.7565 198.4518 197.8331 198.0304 197.9301 198.1008 198.9181 197.9714 186.1502 181.4864 179.4909 178.8584 179.6819 181.2494 197.8308 218.7264 223.3301 224.5078 230.0347 228.3376 228.5377 228.6147 223.9674 224.8611 224.7609 222.985 217.2769 213.2963 215.2562 215.4249 217.2361 217.9324 221.0101 227.9284 212.3964 218.2782 211.9644 224.4494 222.3334 215.7742 218.4266 216.7067 211.6463 212.5133 216.1087 211.4171 215.0768 210.4906 211.6337 215.9625 209.3555 202.5097 191.8354 189.1649 191.1403 194.3911 191.1624 188.908 188.8904 183.4797 183.7631 182.3966 182.6132 182.5255 182.0293
215.751 221.2182 211.4449 214.3797 212.5702 205.1307 199.2752 203.897 202.7463 197.7845 195.5348 193.6058 194.6572 193.3099 192.0585 187.1862 185.8801 192.8918 190.8604 189.7179 190.1884 191.4713 193.3022 193.4589 193.0916 190.1964 190.1964 190.1964 190.1964 190.1964 189.0612 189.0612 187.789 185.0946 179.6801 179.3625 178.6233 178.6233 200.6546 204.5453 217.1888 218.889 229.7146 229.0407 226.9621 222.4029 219.9611 216.1849 211.7318 209.0365 209.0365 213.5026 212.87 212.87 215.075 223.5404 222.67 221.2661 221.1488 213.0454 216.263 211.9644 211.9644 211.9644 219.0434 211.9084 211.7853 215.4548 217.7513 218.6419 210.4906 210.4906 210.4906 211.4911 212.8052 212.1621 205.2188 201.2687 202.8252 195.6109 193.3708 192.5675 190.7774 185.8198 189.4301 188.7166 186.5977 183.7478 182.8931 181.2542
209.9302 212.878 208.722 210.1438 207.4887 205.4073 198.1318 198.161 197.9864 196.8921 194.2064 194.8235 193.4819 192.119 187.3231 192.2728 185.8801 187.3323 187.8432 192.1619 192.434 191.353 189.401 189.401 190.7222 192.8846 198.675 202.51 195.0361 203.463 200.4085 195.4608 190.7573 184.5951 179.0007 179.1711 178.6233 179.0143 189.3362 208.2203 216.189 204.5174 200.2604 208.1147 207.2928 207.2928 207.2928 207.2928 207.2928 211.775 211.3308 211.75 217.0172 213.8762 215.9984 210.1088 216.1473 211.9491 211.9491 211.9491 218.376 216.5378 217.6362 221.693 211.8625 211.1549 210.4906 210.4906 210.4906 215.1953 210.4906 216.7955 210.9621 212.5427 213.1236 214.7653 213.8046 205.6805 203.203 201.1384 194.4963 191.2929 191.7546 187.2669 190.0115 189.072 188.8141 187.1516 186.2641 184.4156
207.2484 208.9666 208.1097 207.7692 204.6768 201.1326 197.9937 197.0521 195.0262 194.0139 193.519 191.9362 191.9844 190.671 186.3157 188.776 184.0898 184.8983 185.8055 188.9982 189.6637 189.401 193.7534 197.4696 200.8028 200.013 202.2098 204.1558 203.1756 203.8459 203.7867 197.2962 185.2701 180.2556 177.1662 177.7159 177.2833 179.2175 202.4392 189.3362 190.487 192.4066 195.4963 207.2928 209.0038 220.4561 218.1225 213.8676 212.253 207.2928 207.2928 207.2928 207.2928 207.2928 207.2928 211.0563 211.9491 212.3216 211.9491 211.9491 212.59 217.7275 222.0793 220.681 218.7749 210.4906 210.4906 213.4749 211.4754 210.4906 211.5122 213.8286 210.9621 211.7121 211.6724 211.1843 208.319 204.0337 204.6444 198.5023 199.5694 192.4956 189.7078 194.2765 192.9618 194.9121 189.9796 189.0724 187.4032 186.5832
207.5563 216.4882 209.213 199.8858 200.7365 198.3322 196.0276 193.6355 193.8152 191.7068 191.8731 189.2722 186.7883 185.7686 185.259 185.81 183.1488 183.4592 189.7086 185.737 189.401 191.4511 194.9725 194.8459 196.0893 198.0527 200.7344 204.2696 209.0383 210.6819 200.5444 189.1671 186.0595 178.9969 177.0953 177.2833 177.3242 178.8651 193.5537 198.1329 202.5422 207.6507 207.4848 214.4405 220.6781 225.7566 225.749 226.5653 225.5648 214.199 225.7306 213.474 221.2995 224.2609 211.5564 219.6579 228.3332 223.6058 217.2042 215.368 215.2934 218.1593 215.2934 217.8395 213.2491 217.4951 211.8906 210.4906 216.9752 215.9944 212.1756 212.8781 213.4356 211.5431 210.9571 205.5845 210.8789 205.5845 202.9268 200.3699 197.1728 200.2852 200.8442 201.2056 200.448 195.6987 194.1369 190.8874 189.5385 188.5946
212.894 214.5724 209.8282 199.5513 201.3469 196.6295 194.0631 194.6197 192.9498 191.829 190.5197 188.5306 185.4442 188.0839 183.1488 183.1488 188.6345 182.7782 184.1057 189.9867 189.2948 192.4063 191.4457 192.1306 194.3817 195.0463 196.2611 201.0627 199.4207 193.3882 190.0632 195.2262 187.655 178.479 177.0953 177.4064 177.2078 178.8798 196.1281 196.2611 205.3308 214.8002 215.2987 222.6997 232.9254 236.7803 236.482 233.3867 233.6661 227.7457 227.937 225.0709 230.1004 224.8369 214.9821 228.0443 232.7165 226.3628 225.6193 223.5615 215.2934 215.2934 219.1711 218.4037 222.3689 223.4043 216.735 213.0807 218.4542 218.9095 222.2349 217.9309 210.1517 212.0442 209.8021 205.5845 205.5845 210.5211 210.7938 201.045 205.6996 204.5091 201.9086 202.2467 201.9213 200.4299 197.8199 196.2471 193.5467 190.4708
204.1741 216.0403 213.3007 200.5234 195.1562 195.8018 195.9685 193.7765 191.9307 191.7614 189.7156 188.9434 186.7446 183.1488 187.2475 183.1488 188.2609 182.7782 188.2027 188.4555 189.5081 190.5516 192.5442 193.327 192.1021 194.4263 192.8535 190.0519 191.9397 192.9147 192.6274 194.5418 192.9868 179.5884 175.0447 175.0447 177.3979 179.2957 191.5012 206.7052 216.0202 214.6846 220.2564 221.4508 227.7236 229.0688 232.429 236.7431 237.742 233.2595 231.4588 231.5137 227.374 227.2559 223.9468 218.8319 229.1839 227.0341 229.8868 222.1474 217.3976 219.0676 219.7967 219.1236 225.724 216.735 220.8275 223.5902 220.6882 216.9912 216.22 214.9898 207.5116 206.4346 206.4346 212.7605 216.7304 223.5359 218.6701 213.9248 207.8347 208.0634 204.0312 203.6501 204.1723 202.8306 200.2489 202.0469 194.3312 191.4522
196.2992 199.8601 202.8668 197.7162 191.8178 194.1445 192.2766 191.9085 190.3912 190.8002 189.9418 187.624 183.1488 186.6037 187.004 184.711 187.2308 182.791 182.7782 187.4485 188.1385 188.811 190.1143 190.1412 188.6321 186.6682 187.7078 193.6995 201.0706 204.2935 201.2734 207.1469 204.2599 189.5168 175.0447 180.0956 176.7294 178.9024 197.5007 204.2953 209.6085 216.5576 218.4532 222.8112 228.3061 228.3957 226.716 238.1351 233.8808 236.5604 231.7778 233.7517 228.418 228.9535 226.8761 223.5481 228.4988 229.743 224.6569 224.4194 221.756 221.8402 217.6106 218.1814 220.243 224.2697 219.329 216.6284 219.3222 212.2333 212.9966 208.7462 210.212 211.9405 211.9907 215.3885 216.5981 218.1266 221.2762 220.3714 215.2895 210.314 208.0085 205.3616 204.4172 199.9999 199.9999 194.9971 199.7245 192.0828
192.3376 201.617 194.1044 191.9105 191.8178 192.4334 191.5456 188.865 189.0331 190.2682 189.9426 185.6014 185.8042 185.9562 183.4569 183.1855 181.5646 181.5646 181.5646 186.0137 188.1217 188.7978 188.9825 186.5304 186.6682 193.3687 197.9868 196.3168 200.6611 204.1115 204.003 202.3973 201.6195 192.0094 175.0447 180.5465 177.0941 179.8189 196.6226 202.8455 207.1102 214.4006 218.8952 216.728 216.1731 220.44 231.0017 225.4653 233.7774 239.6013 234.4942 231.9499 234.6208 232.8452 231.4817 227.5827 233.7794 229.9697 224.3904 225.9318 219.7409 222.5357 217.6106 217.8097 213.9884 221.0804 211.959 211.959 211.959 211.959 212.8968 213.0412 208.7462 208.7462 211.5323 217.6867 215.17 215.1553 218.2823 221.0007 221.5804 217.7495 213.482 210.5753 205.8033 201.0613 200.6887 201.6151 196.9162 195.0712
190.6694 190.6694 192.9319 194.3316 193.6642 191.8178 189.28 190.0304 187.7562 187.0385 188.2589 182.8555 184.1962 185.8255 183.3186 181.5646 181.5646 181.5646 181.5646 185.4614 187.1691 187.7458 186.5304 186.8056 193.4186 194.7811 196.0939 206.137 201.8818 204.0275 203.9795 202.7567 191.9756 184.153 175.0447 175.209 175.17 184.936 182.8058 194.1019 203.5808 203.5808 203.5808 216.1731 222.2753 230.836 225.4653 236.9015 236.5966 239.1997 240.5079 237.7908 232.9521 231.2209 231.4623 226.1234 227.7549 228.0797 224.2057 217.7499 220.9295 219.3539 218.0202 217.6106 219.6629 213.5878 211.959 211.959 211.959 216.7862 213.7046 217.8014 219.7325 212.0125 213.0142 215.9573 214.8155 213.7135 215.0503 217.3504 221.3107 217.3426 210.1429 209.0562 205.6121 203.8317 202.1641 198.138 204.8931 196.8042
196.7568 197.0137 196.099 192.3052 190.9272 190.8581 191.7065 190.272 188.8887 186.0433 182.8555 184.2675 184.411 184.5191 183.937 183.4427 183.3133 181.5646 181.5646 182.2113 184.9152 186.5304 187.5161 190.6482 189.9293 195.9439 197.074 196.4602 200.1607 200.8635 203.0012 202.904 192.5428 182.5299 173.2692 173.1742 174.5112 195.3859 198.3968 200.9017 205.1535 211.7114 217.0289 223.8226 228.152 231.9317 237.8041 235.1527 235.0565 237.2792 234.7508 232.6436 233.199 230.7969 227.6581 218.0327 226.8907 210.5257 213.356 210.7248 210.7248 214.156 213.0183 216.8244 215.5395 211.959 213.3143 215.4351 218.4204 219.5821 217.7078 215.1602 214.8187 213.3474 212.912 212.912 214.3291 213.378 213.0558 213.6884 214.744 222.1898 220.476 212.9617 209.2607 211.0964 203.367 199.8993 202.6498 196.0728
202.397 201.3007 198.1572 194.3819 191.9552 191.6087 190.4041 189.8384 188.2645 181.311 182.7789 182.811 183.8625 183.1052 183.011 182.8702 182.5023 181.5646 188.3173 187.6638 187.311 188.8837 189.2132 194.4927 194.5695 195.1898 195.009 195.009 195.009 196.2467 198.2482 197.0048 185.6165 173.609 171.0052 171.643 182.5263 195.3601 195.3601 199.4575 207.723 211.8511 217.1045 220.0424 222.7294 223.0498 225.0475 224.4825 225.8519 226.9195 230.2851 235.5986 228.0231 227.2214 220.6324 216.2398 212.4279 210.5257 210.5257 220.1779 220.4938 219.156 217.1968 209.9764 211.959 214.7934 222.4285 221.5025 217.4361 217.4361 219.2088 214.8187 216.8891 212.912 215.3966 214.9132 213.177 213.0558 213.9999 214.3262 214.7488 216.547 214.8054 217.7073 211.3281 207.6273 205.6707 205.1528 202.5957 205.2184
202.1502 207.1574 201.4735 197.7453 191.9182 191.0002 188.5278 188.5278 186.9274 186.2942 181.311 182.6538 183.156 182.9071 180.797 182.0425 181.5646 186.2188 185.741 185.8869 186.2683 186.1417 189.4913 194.9741 194.7616 197.173 196.6841 195.009 195.2264 196.2363 198.1016 194.3937 185.8089 171.0052 173.0666 173.0861 198.5398 200.21 203.9863 201.5265 203.1165 210.1121 213.0112 220.6229 219.2782 222.6075 221.6804 220.6804 220.7218 228.1037 229.897 234.5932 225.8665 216.7282 210.5257 210.5257 210.5257 212.2461 223.8985 228.8619 225.8802 224.521 220.3049 207.331 210.3102 221.3125 219.7696 224.2199 219.3789 218.7024 219.5749 218.1903 215.8113 219.497 214.0607 216.2296 216.4493 213.9274 213.0558 213.0558 213.0558 213.0558 213.0558 215.6854 214.1828 214.3644 211.0445 209.9646 204.7577 203.4949
201.8896 206.5773 201.7975 198.8148 194.5572 191.8171 190.2869 188.5533 186.6386 187.1656 184.8968 181.2882 181.2882 181.2882 180.7256 181.5646 185.5963 189.7568 186.5613 183.3952 183.929 186.314 188.3866 189.315 193.0505 196.0411 197.91 195.6039 195.009 194.8923 191.9151 183.6086 172.4297 167.9209 170.0388 188.596 197.9286 199.3331 201.928 199.3931 208.1194 213.5115 217.8535 218.7942 219.1718 215.9894 218.0178 219.2303 222.8845 227.7869 224.7737 225.2469 217.6979 210.5257 214.0553 217.496 221.6149 225.0794 225.5822 223.8578 226.0428 217.3445 209.6344 207.331 211.8925 210.9854 210.9854 218.1489 225.2672 226.1207 223.7761 222.7656 219.8728 214.0607 214.8601 214.7539 213.9274 215.2061 213.2639 214.0188 213.7252 213.0558 213.1245 213.5217 219.8877 216.3406 209.0083 209.0083 209.9414 208.6714
201.1998 204.184 201.0896 197.2434 194.4986 194.2993 190.4532 189.0534 187.5138 186.3433 186.7363 185.8167 186.6588 186.1732 180.3265 178.6947 180.2003 187.3123 182.6463 183.7148 184.3362 188.4406 188.8325 191.2036 194.1621 196.7892 197.9883 195.0193 195.5457 193.0531 182.6961 182.741 169.1834 175.0429 167.9209 193.6565 195.1421 195.1421 195.3794 201.1604 207.9795 213.1816 215.5613 209.0352 215.5792 216.5387 214.7849 219.2528 220.5745 219.5608 213.8876 209.8374 207.8314 212.7721 223.7857 227.0328 225.6785 222.051 219.108 225.1446 221.0455 216.5388 207.331 207.331 210.9309 218.9135 213.3087 218.0457 223.5036 228.6381 228.2052 221.2712 216.012 214.0607 215.787 217.5813 218.0228 214.0109 214.7729 213.0558 213.0558 213.0558 213.177 213.0558 213.0558 214.5905 218.7556 219.1258 208.614 206.5397
198.4783 201.1806 200.2153 197.9316 195.1438 191.5065 190.3067 188.911 187.4618 187.9763 187.411 187.559 187.411 186.1201 182.6527 178.6947 179.4094 178.6947 180.3349 180.8485 182.4741 185.5786 187.7256 190.2014 191.5257 193.3864 195.1561 185.5271 182.7139 182.6961 183.02 177.3989 177.958 166.8022 170.5823 192.869 195.1863 200.5424 206.5906 206.909 204.2459 207.3366 209.0136 207.4509 207.7617 212.6436 215.0503 213.4267 206.3504 202.8126 202.8126 207.8314 212.6787 221.9823 230.5635 229.6276 220.3882 215.8742 215.684 217.5882 208.481 207.331 211.4133 216.9927 224.2077 221.305 219.5952 217.3568 219.5781 222.775 225.1609 217.1702 219.6641 215.4194 215.279 213.8419 213.3094 216.155 213.0558 213.0558 213.0558 213.0558 213.0558 213.0558 213.0558 213.1562 214.6677 218.9722 218.3553 211.4537
196.438 198.3803 200.7535 200.8182 197.3821 193.1582 190.8915 188.911 188.911 188.911 188.9109 188.7045 188.661 186.7381 181.9192 181.2614 178.6947 179.711 181.1288 181.7255 182.911 181.6231 181.781 182.021 182.021 182.021 182.021 183.5441 190.6947 191.3203 195.7756 185.9333 167.0162 165.2023 172.3945 192.9482 193.8509 200.4453 200.8423 207.4406 197.7301 197.4404 198.5079 207.0887 211.127 206.0966 203.2076 200.3542 200.8369 204.75 211.7565 221.3125 221.6452 221.0637 223.9071 219.1607 215.0695 213.0782 202.2038 202.2932 207.331 214.3934 222.0488 223.3633 226.4886 220.6855 212.7789 215.1788 218.0866 222.6859 227.8409 224.5672 222.766 215.8515 212.5276 213.8258 213.619 213.3094 213.0558 213.0558 213.0558 213.0558 213.0558 213.0558 213.0558 213.0558 213.3648 216.7409 221.0873 218.1704
194.7756 200.8481 204.3935 200.2902 197.3154 194.4495 190.4332 192.8314 190.3144 190.4037 188.911 188.8066 187.8124 186.7407 182.1334 179.8752 177.7466 188.4518 181.3063 179.8217 177.5418 177.5418 178.0386 184.1888 187.9926 191.1404 192.7712 196.8549 197.741 200.8442 198.3405 186.446 168.3525 168.0011 165.2023 192.0546 187.8395 191.6865 193.0213 190.2576 190.4467 190.4467 192.0812 192.5154 192.8313 192.8313 200.3542 206.9395 210.3494 213.7169 217.3364 223.4618 215.7239 215.5686 219.8691 216.5332 204.6813 202.0811 213.0437 219.5561 219.4938 220.6819 217.1915 218.6616 213.2667 213.9805 211.3477 215.0384 211.4063 216.5996 216.5996 219.4413 217.3355 215.6795 212.5135 213.6147 213.1484 213.0558 213.0558 218.2161 213.0558 213.0558 213.0558 213.0558 213.0558 213.0558 213.8102 213.6207 217.4707 220.6871
194.4551 200.6885 198.0882 194.1945 195.0947 196.4748 194.1512 192.9447 190.2611 188.8643 189.8834 188.8475 188.0605 187.307 186.3268 180.8943 176.2686 185.1775 177.9588 175.6685 177.7939 186.7565 190.2039 194.9225 196.6849 201.0756 201.0698 200.9435 203.0616 201.0906 199.4779 189.1858 166.8832 165.2023 169.329 168.7901 189.7063 183.84 183.1168 189.8502 201.3928 202.9785 206.0979 206.0977 210.1821 208.837 208.483 208.4482 212.6992 217.9099 218.1063 218.3228 210.9055 214.6588 223.9241 216.9476 206.6781 202.074 207.1947 207.1947 207.1947 211.2727 209.421 209.421 209.421 209.421 209.421 211.3317 213.9583 216.6623 223.3966 221.614 215.7702 214.056 214.8165 212.5135 213.1163 216.0559 213.0558 213.0558 213.0558 213.0558 213.0558 213.0558 213.0558 213.0558 213.0558 213.0558 218.613 220.6667
187.6202 193.6087 188.2841 191.7908 192.7604 192.7358 192.7358 192.2105 191.9845 190.5015 188.4992 188.8165 187.311 186.5482 184.0958 183.0182 175.336 176.8199 175.6685 182.8026 189.5856 189.5142 193.2535 196.5565 196.1534 200.2201 201.478 202.8711 203.8013 198.5022 196.1707 187.3663 164.909 164.9333 165.9194 168.1009 169.8482 183.1168 195.1371 202.7648 204.9169 205.3604 203.8761 195.6214 197.7429 205.781 206.9818 207.7705 211.1923 212.9472 211.5589 211.5278 210.8572 214.6031 220.0272 206.7462 198.3106 201.5362 212.9239 213.8853 213.0669 209.421 210.3454 209.7938 212.3329 218.4947 219.9043 213.132 212.724 217.4041 227.2962 220.5506 223.802 220.9075 214.6292 212.5135 215.7247 213.4472 214.0374 213.0558 213.0558 213.0558 213.0558 213.0558 213.0558 213.0558 213.0558 213.325 214.7281 214.7769
